# .PCD v0.7 - Point Cloud Data file format
VERSION 0.7
FIELDS x y z
SIZE 4 4 4
TYPE F F F
COUNT 1 1 1
WIDTH 1477
HEIGHT 1
VIEWPOINT 0 0 0 1 0 0 0
POINTS 1477
DATA ascii
-0.036001921 1.0571059 4.8775411
-0.038294524 1.0928131 4.7831187
-0.024438767 1.0863563 4.8026028
-0.016312469 1.1011931 4.7531934
-0.0091233533 1.1119988 4.6967382
-0.0078319237 1.1867405 4.651422
-0.021139968 1.1719975 4.6156931
-0.043773592 1.1744974 4.5814896
-0.010900397 1.1955779 4.5559883
-0.026770597 1.2106334 4.5003653
0.0083581451 1.2017814 4.4911981
0.0060702227 1.2932514 4.4289498
-0.0077209789 1.2893252 4.4025149
0.014160141 1.2869974 4.3858418
-0.025593383 1.3235717 4.3725557
-0.034282375 1.3485748 4.3429008
-0.008730026 1.333873 4.2602501
-0.029894076 1.3582203 4.2542014
-0.061734863 1.3709542 4.2407207
0.010076895 1.3752909 4.2054272
-0.0060194358 1.4136012 4.2114563
-0.061187223 1.3943828 4.1636052
-0.02183035 1.4230677 4.1289415
-0.024154667 1.4237061 4.0538998
-0.057057608 1.4283913 4.0587411
-0.013698633 1.4765179 4.052918
-0.027552273 1.4690158 4.0007124
-0.016727742 1.4680363 4.0092363
-0.022578394 1.4515586 3.9556563
-0.041883867 1.4973383 3.931639
-0.037488177 1.5017444 3.8600845
-0.039348621 1.5268729 3.8700452
-0.035906017 1.5434039 3.8630753
-0.016117021 1.5758635 3.8643122
-0.022556007 1.572785 3.7876258
-0.0036757123 1.5600536 3.7748592
-0.014595732 1.5824353 3.753464
-0.044587743 1.5880641 3.7175019
-0.043125652 1.6076424 3.703862
-0.028390501 1.0130674 4.9322209
-0.0043273494 1.0036758 4.9075522
-0.0081998594 1.0503907 4.8516498
-0.0034561362 1.05059 4.8700604
-0.033612013 1.0967423 4.8050694
-0.03652449 1.0915786 4.7895718
-0.032472886 1.139432 4.6969457
0.0092353337 1.1792147 4.7201738
-0.045356207 1.15061 4.6444035
-0.021102544 1.2253375 4.6400247
-0.048518453 1.2238275 4.5851488
0.003790753 1.2271278 4.5474238
-0.027124448 1.2174547 4.4978189
-0.0042883325 1.231607 4.4538136
-0.022972191 1.2153672 4.438086
-0.015947834 1.2682685 4.4406734
-0.0028498452 1.2793599 4.4083061
-0.057456218 1.3215692 4.394001
-0.010051231 1.3275065 4.3329301
-0.019184018 1.3396158 4.331368
-0.007359405 1.3520046 4.2742395
-0.0321448 1.3880287 4.2087879
-0.015154351 1.3229755 4.1926785
-0.010993155 1.358416 4.2087717
-0.002072135 1.3786137 4.1424308
-0.0066435868 1.3683382 4.1295304
-0.016983384 1.3962097 4.0612059
-0.0028345557 1.4127558 4.0587354
-0.01944115 1.4646124 4.0604801
-0.011532816 1.4889127 4.0439525
-0.0016117338 1.465686 3.9918129
-0.025711725 1.4861315 3.9629853
-0.030557586 1.4897782 3.9082456
-0.026792908 1.5174465 3.9281266
-0.0049814116 1.5133896 3.902683
-0.05949042 1.4950253 3.8549795
-0.011302421 1.5215764 3.8493502
-0.066375129 1.5467522 3.8248436
0.0015166551 1.5668917 3.7794545
-0.026542522 1.5481927 3.765548
-0.035905186 1.5958104 3.7622838
-0.012712 1.5533735 3.7534709
-0.00076850131 1.0080616 4.9980087
0.0021652468 1.0335357 4.9215717
0.022202432 1.0353622 4.9229922
-0.042412501 1.0529634 4.8473167
-0.011854189 1.062494 4.8637109
0.033265144 1.1039675 4.7911258
0.0032174792 1.0954064 4.7046862
-0.021870172 1.1452711 4.7324901
-0.035862148 1.1502744 4.6491532
-0.010701178 1.1900301 4.6612263
0.0047152964 1.2004488 4.5790358
0.00016048644 1.2277319 4.5744834
-0.049212024 1.1781899 4.5493593
-0.0329406 1.2697238 4.4764519
-0.0082334885 1.2463633 4.4918718
-0.024132278 1.2741867 4.4032474
-0.01401338 1.2378714 4.4120545
0.00032100268 1.2940495 4.3955379
0.012648424 1.2876761 4.3465824
-0.04097056 1.3484167 4.3080568
-0.00040263496 1.3376167 4.2878108
-0.017414123 1.3397353 4.247159
0.027480129 1.3630133 4.2284932
0.0019084448 1.3697891 4.209991
-0.02904138 1.3730731 4.1574903
-0.021160759 1.3879395 4.1405621
0.0098119034 1.4383774 4.1038184
-0.02018372 1.4466921 4.1154332
-0.010933761 1.4090675 4.0599771
-0.035660334 1.4677324 4.0223479
-0.027917817 1.4681203 3.9946573
0.0083452621 1.44639 3.9933982
-0.013971964 1.4961993 3.956198
-0.004229961 1.464548 3.9117303
-0.037417021 1.4934763 3.8848286
-0.0049609183 1.5155104 3.874131
0.0037735961 1.5312018 3.8473239
-0.041255131 1.5350046 3.8268893
-0.0030695829 1.5616007 3.8030496
-0.016768018 1.5508627 3.7633958
-0.0096230609 1.572062 3.7359288
-0.01529238 1.6007659 3.767297
0.0065263431 1.0152009 4.9804845
0.0015535955 1.0277009 4.9649572
-0.040042538 1.0144936 4.894599
-0.0062945373 1.0822829 4.8794408
-0.01761476 1.0859569 4.8429985
-0.00073856232 1.1025664 4.7992625
-0.0059328633 1.1273268 4.7193441
0.028231844 1.1318077 4.7030492
0.01285984 1.1409472 4.6898417
-0.0078457603 1.1529353 4.6768808
0.00088538602 1.1899391 4.5832605
0.0010579522 1.1767325 4.6114769
0.015388161 1.2327485 4.530129
0.012068523 1.220081 4.5041013
0.0081558516 1.2379328 4.5094099
-7.936405e-05 1.2466605 4.4594378
-0.00048042741 1.2617737 4.4435005
-0.018536707 1.2801918 4.3432293
-0.013556415 1.3217819 4.3506851
0.039024018 1.2739255 4.3220406
0.01975587 1.307326 4.2998443
-0.010228432 1.3434362 4.2741761
0.012172012 1.3842498 4.2081132
-0.0059911134 1.3784789 4.205565
-0.011554188 1.3582382 4.1630921
-0.0082652029 1.3965164 4.1551814
0.021382177 1.4247993 4.1294641
0.020324297 1.4379349 4.097146
0.013617424 1.4310082 4.0837874
-0.020079426 1.4218323 4.0462003
0.011650619 1.4910617 4.0008416
0.016694907 1.4356679 4.0060115
-0.028618237 1.508437 3.9964123
0.01307993 1.496083 3.9235835
-0.014090787 1.5273803 3.9033628
-0.004673711 1.5150287 3.847127
3.2897573e-05 1.527294 3.8262985
-0.012401648 1.5073485 3.8351603
-0.024124283 1.5258574 3.7922807
0.0072530238 1.6030142 3.8391478
0.047929432 1.5949776 3.7692609
-0.00058045681 1.6110284 3.7581391
0.0021553293 1.6058235 3.7292914
0.0037217308 0.9936341 4.9682856
-0.0060003893 0.99856049 4.9292293
0.032523684 1.0926075 4.8838997
0.026168037 1.0720521 4.8405857
0.022841707 1.0889198 4.8228369
0.010743302 1.1191384 4.7591782
-0.0078750141 1.0886843 4.7372851
-0.0049679698 1.1371899 4.7173047
-0.01209148 1.1334791 4.6828218
0.019001387 1.1559736 4.6336832
0.034038421 1.2007984 4.6149349
0.032946125 1.2328269 4.5575294
0.0244918 1.196753 4.5222125
-0.010634178 1.2193049 4.5212045
-0.0017420547 1.2468185 4.4857526
0.031770289 1.2816073 4.4136167
-0.026705474 1.2705481 4.3590593
-0.022604663 1.3403808 4.350657
0.012288973 1.3057814 4.3512015
0.010774055 1.3495486 4.3233905
0.0040833247 1.3328748 4.2985582
0.016287187 1.3366767 4.2388353
0.02385753 1.3833792 4.2147274
0.034533024 1.3836427 4.2070966
-0.0050883228 1.385466 4.1513281
0.022913551 1.4441241 4.0925231
-0.010305796 1.4411058 4.0982685
-0.011454639 1.4560264 4.0688772
-0.022984928 1.4457546 4.0576186
-0.034200303 1.4335012 3.9759476
-0.024716891 1.4720819 4.0188155
0.015930705 1.4684668 3.981087
0.011059417 1.5174183 3.9622712
-0.0051987544 1.538492 3.8911829
-0.0057717571 1.5013727 3.9207463
0.0033261804 1.5409284 3.841557
0.011535734 1.5180733 3.8238592
0.0013179423 1.5441995 3.8070695
0.005319098 1.5494543 3.7765713
0.014013534 1.5621381 3.7595084
0.0038495648 1.5679511 3.7863758
-0.0098344032 1.5980543 3.7236667
-0.020578466 1.0241957 4.9487057
0.019708462 1.0414566 4.9245467
-0.014831058 1.0544317 4.8839555
0.018092372 1.0705197 4.8510756
0.0051587904 1.101433 4.8220086
0.02318478 1.1003367 4.8278852
0.016197866 1.1092631 4.7258177
-0.016341902 1.1262317 4.6685171
0.0081308112 1.1661028 4.6673222
0.012198099 1.1982981 4.6503119
0.030004807 1.172305 4.6261263
0.016551588 1.235436 4.5797124
-0.020993832 1.2391694 4.5321755
-0.014064088 1.2047092 4.4851308
-0.0099762278 1.2877192 4.4502029
-0.019401059 1.279258 4.4473219
-0.010029893 1.2677429 4.3796659
0.01673241 1.279972 4.3326921
0.021352734 1.3242027 4.3605218
0.0046340856 1.3362182 4.3185472
0.0012706006 1.2931162 4.2856379
-0.018411212 1.3659072 4.2570567
0.025363848 1.3329334 4.1962886
0.0030475231 1.3789474 4.1943378
0.015633516 1.3927472 4.1469965
0.02783414 1.3803282 4.1303496
0.035719901 1.394796 4.1528592
-0.0016106255 1.4148557 4.0496378
-0.030695265 1.4377875 4.042666
0.0017028376 1.4487244 4.0302334
0.021162041 1.4468489 3.9750457
0.031529762 1.4887559 3.9919581
0.040491834 1.4662732 3.9488189
-0.047166429 1.4798342 3.9093599
0.031906821 1.4986802 3.9160645
-0.015096703 1.5431852 3.8910689
0.018360751 1.5269169 3.8298125
0.0088793049 1.5474738 3.8208468
-0.007677814 1.5672853 3.7618611
0.022454143 1.5528494 3.7622349
0.045383744 1.5687451 3.7621689
0.012627199 1.584232 3.777168
0.021434806 1.008527 5.0111132
0.051778331 1.0004615 4.9466901
0.035712592 1.0281996 4.9096432
0.028663352 1.0637412 4.8686037
0.031969786 1.1000389 4.8506503
0.032045361 1.0992423 4.8230982
0.031084642 1.1234909 4.7188306
0.012336561 1.117323 4.6986847
0.024808757 1.1188538 4.6799288
0.028927825 1.1668998 4.6752076
0.029386548 1.1959924 4.6205115
-0.01928764 1.1827347 4.5950518
0.041125339 1.2220645 4.5418963
0.032466676 1.2258681 4.5211897
0.021949407 1.2368509 4.4598789
0.014072235 1.2504389 4.4577541
0.020015588 1.2660078 4.4419646
0.043380857 1.3051591 4.4025469
0.028289337 1.3007665 4.3351011
0.014980108 1.2845079 4.3434868
0.0030567143 1.3081405 4.2832398
0.042248152 1.3501567 4.2351856
0.022782532 1.3463537 4.2265897
0.01425074 1.3155371 4.2259684
0.04643612 1.3673387 4.1804724
0.01588295 1.3996654 4.1515088
0.033824779 1.3996212 4.0963459
0.02387353 1.4601427 4.0999255
0.032400914 1.4530542 4.0809603
0.014822335 1.4598742 4.0535541
0.023608245 1.4444215 3.9992414
0.059436791 1.4505762 3.9903402
-0.0033518188 1.486074 3.9919045
0.021504249 1.4516696 3.913667
-0.0037683286 1.4918435 3.8893983
-0.0058492105 1.5408829 3.87674
-0.0077655595 1.5242655 3.8654003
0.050772641 1.4971579 3.7783453
0.0072208708 1.5093644 3.8172388
-0.0018849205 1.550899 3.8056233
0.020600267 1.6081922 3.8003047
0.019987065 1.580047 3.7439339
0.0050549163 1.5947942 3.6873343
0.0036126506 1.006313 4.9682837
0.035668463 1.0678804 4.9326568
0.026131148 1.0541599 4.8603401
0.047224831 1.063915 4.8169785
0.025615685 1.070868 4.8373346
0.036060851 1.0849673 4.7549419
0.033356629 1.1083937 4.7160883
0.053323984 1.1465509 4.6930208
0.045449264 1.1624687 4.645493
0.022066526 1.1361247 4.6416311
0.061097808 1.214291 4.5759077
-0.0054073185 1.21822 4.5514064
0.012125622 1.2397476 4.5562634
0.036948469 1.2386856 4.5005589
0.062970273 1.2634703 4.4351859
7.9810619e-05 1.2475137 4.4554024
0.035602771 1.2499239 4.3926954
0.033353195 1.2961149 4.3992972
0.041395925 1.2797704 4.3259354
0.039667286 1.3213787 4.3066549
0.031911399 1.3184268 4.2649803
0.061039761 1.3312883 4.2322168
0.011243061 1.3802983 4.2063637
0.013587981 1.3873678 4.2032433
0.028087391 1.363924 4.1611953
-0.004465282 1.3750353 4.1116138
0.021610798 1.4118419 4.0840297
0.015412743 1.4647501 4.0815268
-0.0051326193 1.4417108 4.0528827
0.04513694 1.4171404 4.0060868
0.031110436 1.4652448 3.9636581
0.030229779 1.4474103 3.9773107
0.029030245 1.4885093 3.93806
0.010078244 1.4841563 3.9151251
0.021120798 1.4865347 3.9161918
-0.013451274 1.5448786 3.8631995
-0.012267342 1.5160046 3.8663323
0.022380305 1.5466958 3.8209443
0.063858502 1.5702118 3.7700362
0.047202177 1.5740995 3.7657359
0.0147016 1.5895109 3.780206
0.044268969 1.5917091 3.7035444
0.0046626963 1.0035475 4.9752688
0.023104684 1.0405819 4.9401927
0.061392643 1.0481112 4.8838038
0.065649286 1.0306017 4.8717041
0.028426103 1.0767049 4.8710194
0.027357215 1.1173154 4.8035564
0.016072929 1.1403917 4.7568026
0.03699499 1.1380494 4.6859727
0.028465062 1.1224236 4.6611133
0.020148421 1.1245948 4.6512284
0.012633355 1.169391 4.5894961
0.034813464 1.1972558 4.5749145
0.072803095 1.2300667 4.5556593
0.053130649 1.2327772 4.5448904
0.018809302 1.243717 4.4940186
0.076615959 1.2884412 4.4579225
0.0026397742 1.2647294 4.4039321
0.048860595 1.2937559 4.3606377
-0.0014286414 1.3095708 4.3208461
0.070768774 1.3511276 4.3067589
0.041914262 1.3462625 4.2808309
0.028329093 1.3174754 4.2394404
0.012226302 1.3536156 4.2106705
-0.0084208921 1.4214195 4.1794162
0.043281324 1.3754429 4.1686225
0.03126942 1.3745291 4.1346107
0.022864006 1.4056273 4.0977483
0.04816629 1.4331868 4.0664744
0.0058400333 1.4557647 4.0642738
0.040882353 1.4122752 4.0114918
0.027491556 1.4618316 3.9925363
0.015626611 1.4608257 3.9376955
-0.0012441389 1.4880481 3.9446595
0.031290472 1.5156549 3.9372072
0.0058001708 1.4964805 3.9172044
0.02978334 1.4938766 3.8442779
0.054767191 1.502039 3.8346519
0.03214759 1.5361563 3.8317955
0.073586561 1.5512013 3.7781446
0.0048139375 1.5407267 3.7643051
0.018337686 1.554955 3.780005
-0.0046015531 1.5617796 3.7342389
0.047111426 1.0165167 5.0094743
0.053623516 1.0354363 4.9602432
0.033279397 1.0362544 4.9161277
0.049575947 1.0892341 4.8686914
0.022019453 1.0497735 4.8044143
0.038491499 1.1033636 4.803915
0.049090743 1.1396644 4.7807412
0.098949328 1.135103 4.7312012
0.04501453 1.1532049 4.6844335
0.018336905 1.150164 4.6568575
0.041498225 1.1715541 4.6121993
0.071106531 1.2147541 4.5574865
0.072906047 1.2219756 4.5588107
0.032251619 1.2439841 4.5021424
0.059996944 1.244192 4.4692469
0.043919075 1.277662 4.497735
0.075208962 1.294762 4.4739132
0.028555214 1.2887607 4.3877778
0.045094352 1.3139313 4.3279529
0.041991413 1.3207507 4.2985392
0.047319598 1.3124343 4.2963305
0.070874259 1.3205023 4.2939868
0.029077705 1.3639967 4.239666
0.075920954 1.3557053 4.1839342
0.07918784 1.3682913 4.1621156
0.046653755 1.379041 4.1671896
0.031285714 1.3650341 4.1720562
0.049291272 1.4162673 4.1133304
0.025284462 1.4127059 4.0768471
0.061197452 1.4463892 4.0242882
0.019198965 1.4751741 3.9930975
0.016974788 1.4604955 3.9978824
0.019389225 1.5018541 3.9576995
0.044614419 1.5330149 3.9473205
0.038427424 1.4992952 3.9037123
0.025054563 1.5473516 3.8552032
0.04753755 1.5294147 3.8566735
0.031115284 1.4948674 3.8364244
0.050742026 1.5412065 3.800873
0.063329704 1.5415856 3.7569144
0.045535941 1.5314685 3.772577
0.016893763 1.5481567 3.7207243
0.039398529 1.5844041 3.7241836
0.048689585 0.98914915 4.9803162
0.092829853 1.0269407 4.9003243
0.031006623 1.0821967 4.879178
0.063728303 1.0781217 4.8680048
0.067836866 1.1092139 4.8225665
0.049827833 1.1112782 4.810195
0.036065444 1.1196138 4.7003121
0.099767581 1.1236267 4.7112355
0.053831216 1.1498984 4.6500316
0.042296767 1.1437665 4.6115537
0.076881513 1.2027377 4.5861058
0.053715982 1.1822845 4.5708151
0.026433086 1.2253927 4.5210404
0.062013205 1.2641916 4.4983091
0.053917658 1.2844895 4.4397569
0.033375181 1.2487531 4.4623313
0.036850534 1.2984935 4.3942733
0.017003667 1.2855525 4.356648
0.042364724 1.3267578 4.2866664
0.052922167 1.3038218 4.3231559
0.064451277 1.3138705 4.3018517
0.049149066 1.3516698 4.2665205
0.016612265 1.3623927 4.1974335
0.076757826 1.4017347 4.1754627
0.066322505 1.3765422 4.1733236
0.026623491 1.4302658 4.1184101
0.050386179 1.4199516 4.1210065
0.016674504 1.4085944 4.0632482
0.038375556 1.4180019 4.0383811
0.083896004 1.448293 4.0253458
0.044021327 1.4346685 4.0110173
0.033657175 1.484356 3.9511487
0.075337201 1.5368309 3.9375801
0.052593134 1.5189413 3.9134674
0.05088409 1.5015898 3.8881471
0.040428385 1.5188658 3.8505962
0.066248253 1.5310941 3.8868222
0.021841647 1.5731763 3.8026383
0.064254723 1.5675896 3.8093336
0.010414422 1.5777904 3.7983325
0.034121234 1.6053454 3.7309515
0.046636503 1.6033444 3.7555323
0.050611965 1.023147 4.9879212
0.096550196 1.0259944 4.9386153
0.047166228 1.0386583 4.9230881
0.073284678 1.0520097 4.854774
0.039223135 1.0584797 4.853766
0.083745025 1.080116 4.7756443
0.092774764 1.1048648 4.7074757
0.071923576 1.1618072 4.7338457
0.07924749 1.1531893 4.6686497
0.056221113 1.1730995 4.6492639
0.0391347 1.1782646 4.5959411
0.073929429 1.2201359 4.5956144
0.060171336 1.2022142 4.5445852
0.072172366 1.2405792 4.4743466
0.069957279 1.2201221 4.4627385
0.050373781 1.2548232 4.4563146
0.13367185 1.2973846 4.3898869
0.048545342 1.275285 4.3896666
0.060827728 1.2779307 4.3591022
0.060416218 1.3276269 4.3041091
0.047855113 1.3251261 4.2607465
0.075761855 1.3513998 4.2471747
0.062980928 1.3367668 4.2189293
0.05389908 1.3273442 4.227529
0.074579038 1.3744848 4.1812911
0.039384909 1.3899183 4.1064754
0.07583876 1.4134952 4.107018
0.047180563 1.4369174 4.1448579
0.078479961 1.4532231 4.020885
0.047677867 1.4639639 4.0191875
0.050511617 1.4736286 4.0395875
0.061346035 1.4524451 4.0117221
0.071311191 1.4646785 3.964427
0.040612757 1.4896835 3.9061773
0.079919592 1.4847285 3.927963
0.097630031 1.5005424 3.8581409
0.068575554 1.5158798 3.8759785
0.052288052 1.5496242 3.831744
0.038918186 1.5517442 3.8086672
0.06391567 1.5621349 3.8034811
0.062996469 1.5902853 3.7596581
0.027762117 1.5868748 3.6978121
0.099547952 1.0204095 5.0258856
0.087914251 1.0148218 4.9616089
0.074711815 1.0472857 4.9451919
0.049536727 1.0395757 4.8491993
0.09321022 1.0500399 4.8171687
0.094721906 1.0820265 4.8048635
0.080238178 1.1419711 4.7555637
0.094388112 1.134042 4.7266674
0.068678394 1.1604571 4.675528
0.032413997 1.1927046 4.6421919
0.083856657 1.2010746 4.5952473
0.089867011 1.2345989 4.5857563
0.07923726 1.1776263 4.5607867
0.062241558 1.2060587 4.5272784
0.007054124 1.2278558 4.4602461
0.07409174 1.2380055 4.4331398
0.075794511 1.2817451 4.4321647
0.075910576 1.3079607 4.3800755
0.040883098 1.284628 4.3344893
0.090034097 1.3254005 4.3257022
0.087424375 1.3519684 4.2867365
0.043691233 1.3026907 4.2539644
0.069849685 1.33994 4.226181
0.039038997 1.4092937 4.2272234
0.039064735 1.3738662 4.1612563
0.076550946 1.3879155 4.139657
0.01152917 1.4148488 4.0894737
0.067411028 1.4330162 4.1040969
0.05053252 1.4314423 4.0519309
0.086904109 1.455173 4.0721898
0.077633075 1.4585867 4.00633
0.039631233 1.4324116 3.9690104
0.10450807 1.483902 3.9470234
0.079209194 1.4531034 3.9015543
0.057318486 1.4904745 3.8901415
0.06831345 1.5028032 3.8809025
0.060102884 1.5425831 3.8524358
0.035768647 1.5544429 3.843734
0.079402834 1.554279 3.818862
0.033260819 1.5347422 3.7800741
0.059687912 1.592551 3.7618384
0.054387618 1.5849493 3.7017658
0.034675188 1.598814 3.7288148
0.088817909 0.99667478 4.9166522
0.092336051 1.0471773 4.9021845
0.097586989 1.0262252 4.8531103
0.065014303 1.0513361 4.8194633
0.074149147 1.1029828 4.7952256
0.068929896 1.1178778 4.7728324
0.040315665 1.0938855 4.7351832
0.10334007 1.1373079 4.6968517
0.082302049 1.1493016 4.6676707
0.063271344 1.1784202 4.6374402
0.098952271 1.1850252 4.6216779
0.07256946 1.2258806 4.5557394
0.019630037 1.2295132 4.5455832
0.12903565 1.232334 4.5294604
0.057777807 1.2314873 4.4648495
0.052873109 1.3005759 4.3786063
0.07850109 1.3001918 4.4172988
0.087061152 1.2648331 4.3572483
0.078407682 1.3145655 4.3785167
0.10725213 1.3464 4.3335891
0.089458637 1.3450679 4.2628627
0.081497997 1.3593693 4.2611113
0.096206084 1.3660172 4.1836038
0.084542722 1.3454068 4.1989965
0.05753966 1.3622715 4.1519332
0.050200127 1.4175063 4.1417365
0.06422621 1.4148067 4.083981
0.080004364 1.4209889 4.0772247
0.039811634 1.4568336 4.0376549
0.048853371 1.4454602 4.0222301
0.041424647 1.4405965 3.9948957
0.029825196 1.4890625 3.9526203
0.080766194 1.509706 3.9706652
0.085250095 1.4885737 3.9346311
0.064177006 1.5213954 3.9157112
0.065490328 1.5205647 3.8516829
0.06317246 1.5403986 3.8096917
0.065806963 1.5200754 3.829083
0.048440788 1.5420516 3.7999246
0.033351392 1.5987233 3.7716181
0.096470602 1.5795088 3.7470388
0.067119561 1.6062024 3.7428446
0.08534804 1.0031843 4.9675546
0.11288189 1.0409231 4.9179015
0.097909644 1.058645 4.8967142
0.11416083 1.040962 4.8413739
0.085214429 1.0718114 4.8545885
0.083132386 1.0983185 4.7483716
0.094375558 1.1204449 4.7523789
0.070243582 1.1759366 4.6943097
0.1039707 1.1707704 4.6649647
0.060168326 1.1625251 4.668674
0.061018676 1.1585757 4.6206546
0.087722644 1.2169328 4.570045
0.10220744 1.2232672 4.5481353
0.088690333 1.2361852 4.4985929
0.10761948 1.2614931 4.4905186
0.088400483 1.2450068 4.4268789
0.088416398 1.2608327 4.3647308
0.10245637 1.3229443 4.3777657
0.052133184 1.3306056 4.341011
0.10069114 1.3447385 4.3179374
0.066754997 1.3222591 4.2746916
0.087706171 1.3596672 4.2533889
0.070146203 1.3768368 4.212728
0.10812623 1.3472446 4.2052412
0.081671581 1.3870801 4.1973586
0.068945691 1.3971452 4.1678762
0.095596336 1.3763529 4.1217704
0.065449625 1.4184861 4.1094222
0.052098949 1.4306813 4.0582056
0.07672713 1.4564781 4.003787
0.082480162 1.4724877 4.0229797
0.089259893 1.5062454 4.0195932
0.067940488 1.5133173 3.96984
0.068077795 1.5021204 3.9130676
0.081236765 1.4446162 3.8984699
0.064901888 1.5056646 3.8862908
0.079506435 1.5163292 3.8457026
0.07535927 1.5165353 3.8105233
0.071984634 1.5377094 3.7838235
0.063773774 1.5678905 3.7768457
0.060217701 1.6220524 3.7363133
0.10929342 1.6055155 3.7178893
0.12230086 1.0270158 5.0039754
0.13329265 0.97616577 4.9157581
0.090817474 1.0207645 4.9228654
0.11161615 1.0488645 4.8950543
0.091223277 1.0836203 4.817235
0.12907311 1.128065 4.7936568
0.08509244 1.0708755 4.755589
0.1173787 1.1279076 4.7166595
0.1075466 1.1451013 4.6776009
0.11617191 1.16286 4.644032
0.11149672 1.1780454 4.5867991
0.12146332 1.2208855 4.5785418
0.084646061 1.2178867 4.5395875
0.08965525 1.1887949 4.4851389
0.13410953 1.2165027 4.4899926
0.062820561 1.2791718 4.4408031
0.097643025 1.2717288 4.4426689
0.076997012 1.2700015 4.3812661
0.085448354 1.3040568 4.3442044
0.097622402 1.2870021 4.3497643
0.084561281 1.3060738 4.3028517
0.064538769 1.3623857 4.2832122
0.085472167 1.3719064 4.2310343
0.078672461 1.3535181 4.1877494
0.076377437 1.375368 4.1978874
0.039528914 1.4018731 4.1591644
0.067763373 1.4015439 4.1277156
0.095474266 1.4106437 4.092977
0.09628161 1.4369026 4.0808144
0.078357652 1.4483838 4.0225205
0.12217876 1.456411 4.0242629
0.066306502 1.4527922 3.9734948
0.076819152 1.4734356 3.9439299
0.08241947 1.5027119 3.9259782
0.064104557 1.526697 3.9055197
0.077276535 1.4608001 3.9178486
0.10248134 1.5227309 3.8610151
0.096231773 1.5507764 3.844537
0.07740286 1.5432057 3.7811286
0.064057976 1.5562359 3.7990367
0.11396763 1.5520666 3.772011
0.076363169 1.5753603 3.7368195
0.062068861 1.5886058 3.6652682
0.1308497 1.0059621 4.9826598
0.089335963 1.0191581 4.9062929
0.1040179 1.0598693 4.8802929
0.090293929 1.0683923 4.8362174
0.10182467 1.0888771 4.8033514
0.12355688 1.092545 4.7508974
0.10180502 1.1149507 4.7359734
0.079145387 1.1734647 4.7050209
0.15410925 1.1715566 4.6513109
0.091090433 1.1661482 4.6215315
0.10714054 1.1680259 4.57654
0.05381779 1.1950262 4.5553598
0.11607815 1.1861063 4.5256348
0.10331047 1.2519977 4.4658976
0.10451302 1.2705377 4.4681406
0.12607995 1.2589389 4.4488282
0.085026272 1.2672806 4.4119983
0.067258455 1.2954171 4.3477101
0.064285994 1.3065469 4.3459978
0.080540918 1.2951897 4.2879176
0.082736127 1.3446903 4.2882562
0.11984838 1.3475298 4.2586794
0.086086527 1.3499801 4.2251258
0.092837922 1.3725668 4.1547332
0.13572058 1.3998421 4.15521
0.11667188 1.39946 4.1133537
0.077693343 1.41636 4.114325
0.074402928 1.4351243 4.0861936
0.088308632 1.4637671 4.0435653
0.064989522 1.4473925 4.0050049
0.10249824 1.4569757 3.9961376
0.10924602 1.4807034 3.9661493
0.081369467 1.5047156 3.9500961
0.10814241 1.5404583 3.9223881
0.053657435 1.4937165 3.8956714
0.051474117 1.564483 3.8848135
0.11787698 1.5289168 3.8511934
0.084956773 1.573625 3.8420105
0.066038713 1.5558045 3.7354615
0.11356966 1.5371969 3.7353928
0.062415104 1.5464932 3.7432201
0.088499852 1.5893437 3.7075002
0.083375171 1.03005 4.97785
0.098466896 1.0187887 4.9533973
0.14042617 1.0412891 4.9134054
0.10484406 1.0751017 4.8740053
0.08370021 1.1078018 4.8129582
0.1407948 1.0904642 4.7785611
0.14046757 1.1055712 4.74824
0.1207607 1.1383855 4.7158771
0.12684201 1.1405416 4.6633167
0.099051453 1.1574655 4.6369081
0.11848382 1.1805015 4.6241975
0.10251998 1.1807348 4.5630536
0.091695443 1.2032635 4.5192466
0.11729709 1.2132438 4.4956336
0.094270684 1.2062438 4.4697814
0.10696711 1.285477 4.4580898
0.13870357 1.3047644 4.4169087
0.13850737 1.2767546 4.3817592
0.09989769 1.2812349 4.3458576
0.12111576 1.3255824 4.3079486
0.10988088 1.2966136 4.2759714
0.0978783 1.4025817 4.2518601
0.11341692 1.3480415 4.1942854
0.10445251 1.3678366 4.1943011
0.11699887 1.4027741 4.1992583
0.11924529 1.4205073 4.1403623
0.077887468 1.4241595 4.1098633
0.099471837 1.4322208 4.1039772
0.12270264 1.4233476 4.0332727
0.071620598 1.4369355 4.0346026
0.11199428 1.4912328 4.0357642
0.090375826 1.4605114 3.9448369
0.07265079 1.4830483 3.9923646
0.11453474 1.506228 3.9555879
0.085074656 1.5391597 3.8794515
0.10374209 1.5128278 3.869031
0.11186352 1.5777056 3.8384485
0.10517676 1.4857867 3.7981126
0.11283447 1.5414927 3.8013649
0.085589238 1.5464582 3.7970612
0.1181262 1.5818117 3.7520177
0.097869821 1.5512608 3.7277091
0.15792964 0.99844545 4.9620838
0.14905319 1.0222485 4.9794884
0.13484699 1.0303926 4.9086943
0.11468291 1.0746238 4.871151
0.1698065 1.0605983 4.8407965
0.11485505 1.1185802 4.8071456
0.1182453 1.0862279 4.7277489
0.11027704 1.1327376 4.7267451
0.082446255 1.1580638 4.6895266
0.14217825 1.1679199 4.7101274
0.12175244 1.1694118 4.6205773
0.11985783 1.1878035 4.5825324
0.078037336 1.1936157 4.5311093
0.082534671 1.2277962 4.5162706
0.10219844 1.276768 4.4686794
0.13599968 1.2968597 4.4710703
0.10985615 1.2977276 4.4351807
0.090586245 1.2991849 4.3970871
0.15244442 1.2728885 4.3526387
0.14581889 1.3199781 4.3598461
0.12852901 1.3295382 4.2732663
0.13960917 1.3066903 4.2886724
0.10375793 1.3448454 4.2352514
0.089947186 1.3755064 4.2141504
0.10436756 1.4140588 4.1915107
0.12119351 1.4061153 4.1228728
0.10477421 1.3939199 4.1141977
0.13585091 1.4093994 4.1199107
0.091282263 1.4303342 4.0676913
0.13972963 1.4565946 4.0248623
0.11973015 1.4541113 4.0223484
0.10216965 1.4427931 3.9943855
0.078368172 1.4905355 3.9645023
0.10780928 1.4943143 3.9191651
0.08344201 1.4750749 3.9195261
0.048771277 1.519057 3.8579192
0.08775764 1.5492343 3.8506835
0.090475544 1.5554292 3.8192294
0.080285132 1.5456778 3.7795243
0.075347185 1.5841376 3.7857819
0.12159471 1.5805779 3.7524273
0.092506282 1.5793182 3.7745645
0.066362113 1.5915631 3.7031362
0.16040108 1.0075084 4.9528246
0.17470071 1.0452805 4.9047213
0.1855351 1.0551748 4.8791804
0.1583152 1.1014993 4.8639097
0.10906563 1.0860046 4.8387218
0.1340978 1.1159096 4.7466745
0.14160712 1.1516035 4.7287574
0.15597005 1.136003 4.6937194
0.11583043 1.194446 4.6796594
0.12443257 1.18022 4.6375203
0.11066185 1.2140336 4.5874987
0.16649917 1.2182636 4.5756106
0.10695338 1.2123567 4.5198941
0.15463205 1.2411644 4.4746346
0.10279384 1.2699801 4.4522381
0.15077062 1.2591573 4.4024282
0.13722503 1.2843136 4.3923984
0.1343084 1.28969 4.349865
0.11934583 1.3184522 4.3197351
0.097732857 1.3424006 4.2985477
0.16407415 1.383533 4.2832208
0.11241047 1.321121 4.2160144
0.11482916 1.3520844 4.2111254
0.11699074 1.386916 4.1866074
0.13325548 1.3632562 4.1301999
0.13835818 1.3967167 4.1143618
0.13212067 1.4504144 4.1141467
0.1339094 1.4471241 4.095983
0.11953437 1.4431844 4.0247478
0.091752812 1.4694797 4.0185766
0.1181296 1.4493479 4.0037575
0.12924606 1.4846516 3.9571199
0.099135943 1.5075899 3.9279485
0.070636183 1.4921452 3.9405694
0.10133137 1.4972818 3.8836529
0.10043551 1.5270795 3.8532333
0.11640031 1.5652682 3.8495302
0.087415412 1.5382553 3.8418257
0.12367086 1.5521667 3.8390734
0.079892762 1.56857 3.8002539
0.12008752 1.6020541 3.7852099
0.10589424 1.5695177 3.7120979
0.16955508 1.0175338 4.9991074
0.15073958 1.0626692 4.9232659
0.10951023 1.0737334 4.8940492
0.14863582 1.062093 4.8409524
0.15471798 1.0930204 4.7990179
0.1563022 1.1002223 4.7807727
0.14877459 1.1170217 4.759356
0.1652772 1.1310781 4.7090211
0.14066541 1.1253036 4.6320119
0.14093453 1.1396494 4.647759
0.1491679 1.227065 4.6384454
0.12647472 1.2063919 4.560286
0.14380035 1.2354233 4.4979262
0.1389742 1.2143707 4.5111146
0.12595055 1.2359174 4.4510107
0.13050184 1.2407808 4.4500537
0.13576245 1.2823807 4.426959
0.11038044 1.2977788 4.3551745
0.11081059 1.2758985 4.3559427
0.096302554 1.324826 4.3223548
0.13368416 1.3663032 4.2879529
0.11123402 1.3784405 4.2377248
0.10461059 1.3653554 4.2412701
0.14601834 1.381503 4.2141771
0.13667756 1.4023042 4.1369414
0.12158161 1.4046968 4.1338611
0.13699292 1.4379646 4.0997167
0.10500495 1.4014275 4.0976892
0.15414546 1.4529572 4.0343843
0.13563856 1.4401443 4.009943
0.16117693 1.4511892 4.0442095
0.12145481 1.4649686 4.001122
0.13676876 1.5061479 3.9514537
0.15775733 1.5182118 3.8980577
0.12285731 1.5056431 3.8930845
0.10989919 1.5332094 3.8575182
0.10520354 1.5448029 3.8552065
0.12192629 1.5180787 3.8012826
0.099061407 1.5527411 3.7957401
0.11169632 1.5797514 3.7808299
0.087655209 1.5909646 3.7424424
0.12826921 1.5647365 3.7288432
0.13377801 1.0271026 4.9638772
0.14064051 0.99359089 4.9834604
0.13660157 1.0579854 4.9190807
0.17186992 1.0347347 4.8699818
0.088020295 1.073426 4.8527327
0.13342255 1.1025259 4.7983112
0.14631964 1.0921379 4.7520971
0.14417657 1.1327107 4.7046919
0.13990617 1.169191 4.6740489
0.13668746 1.1343671 4.6508093
0.15096328 1.1542859 4.6291218
0.16011252 1.1976697 4.5622506
0.13603944 1.2035402 4.5706
0.14895673 1.2435399 4.4740744
0.18287356 1.2312796 4.4763565
0.12819539 1.2267995 4.4195065
0.13574962 1.2811869 4.3928509
0.12797314 1.2755351 4.4043436
0.13500303 1.2750642 4.3623857
0.15353675 1.3132297 4.3104391
0.093569815 1.292156 4.2687173
0.14319256 1.3450158 4.2338796
0.15434439 1.3595326 4.2387805
0.10810331 1.3517247 4.188786
0.14981432 1.4122376 4.1766186
0.17236446 1.4159328 4.1181002
0.15804204 1.3755038 4.1382337
0.12151427 1.3904486 4.1315265
0.12074617 1.446322 4.0827684
0.14176027 1.4321675 4.0486574
0.10181338 1.4331199 4.0077395
0.13754195 1.4319134 3.9818048
0.12161002 1.4858134 3.9636147
0.15619032 1.5315695 3.9219158
0.11904432 1.5072576 3.9130759
0.13384277 1.530129 3.8910174
0.11355212 1.5267073 3.9080012
0.10008594 1.5669563 3.849097
0.13156895 1.5711298 3.8227308
0.10522676 1.5459203 3.7945418
0.097902268 1.5576165 3.7436492
0.11678529 1.5992438 3.7638183
0.15038246 1.6073526 3.7070496
0.13363805 0.99954104 4.9595742
0.16411921 1.0281166 4.9528613
0.16736375 1.0516336 4.8714557
0.15153898 1.1067274 4.8534417
0.16526528 1.0752144 4.7903228
0.17403835 1.0803694 4.8186951
0.1881597 1.1115557 4.7313337
0.12730291 1.1320407 4.7235899
0.12065656 1.0998296 4.6945868
0.15327793 1.1951165 4.5962558
0.18179265 1.1736705 4.5592656
0.17927663 1.2173207 4.5779076
0.164194 1.2317786 4.5322542
0.15266712 1.2754601 4.4828725
0.15807427 1.2620708 4.4346633
0.1307454 1.2744603 4.4692307
0.14761753 1.2613802 4.4004431
0.15865351 1.2853111 4.3654146
0.15248072 1.310379 4.3074026
0.14756049 1.287613 4.337822
0.12151672 1.3639388 4.258028
0.15491189 1.3324733 4.2767463
0.12818897 1.3758177 4.237926
0.16225323 1.36814 4.2013345
0.13719696 1.3758209 4.1602101
0.1413185 1.3858572 4.1072173
0.14141807 1.3943942 4.0879412
0.11548906 1.4726603 4.0774908
0.093468353 1.4428976 4.046989
0.14387238 1.4329302 4.0199757
0.10639439 1.4638774 4.0314131
0.13371556 1.4614729 3.9876232
0.14464648 1.4780736 3.9664695
0.1340894 1.5299172 3.9198556
0.17639479 1.5340765 3.8988166
0.12894911 1.5133241 3.859756
0.12393425 1.5854021 3.8632715
0.094257161 1.5497855 3.8014309
0.12881041 1.5452535 3.7950902
0.10763568 1.5576628 3.7913878
0.14443749 1.5608668 3.7699463
0.10252318 1.591556 3.6971371
0.13200668 1.0215946 4.9727449
0.1574008 1.043532 4.9749336
0.1704163 1.0236046 4.9029679
0.19970435 1.0496116 4.883604
0.19595107 1.1019835 4.8270745
0.15919149 1.0892156 4.7925329
0.14563496 1.1698239 4.7516527
0.16020942 1.131155 4.7218366
0.12301565 1.1509956 4.6738439
0.19794308 1.1824323 4.6630993
0.16028303 1.1924342 4.5385046
0.15160754 1.2048752 4.5685697
0.16658396 1.2262299 4.5452995
0.14661852 1.2352527 4.5322218
0.12703252 1.2599347 4.4809217
0.12684935 1.2767031 4.4676862
0.13299216 1.2782845 4.3940554
0.15634978 1.2799548 4.3639731
0.14068432 1.3415285 4.3409142
0.14934601 1.3329076 4.317976
0.16579145 1.3469107 4.2643204
0.1580403 1.3533151 4.2779183
0.17427175 1.3388363 4.2309723
0.14744698 1.3486925 4.233994
0.12939762 1.4079906 4.1562037
0.13756597 1.4017864 4.1484394
0.12479942 1.4126513 4.0700026
0.19018391 1.4316432 4.0863404
0.16451898 1.4446195 4.0678077
0.13634007 1.4294224 4.0437412
0.12641479 1.4666519 4.0047493
0.13910809 1.4658068 3.9773853
0.17707863 1.4933463 3.9654095
0.12719952 1.5102087 3.9417682
0.15165143 1.5347532 3.9036784
0.1492313 1.5290146 3.8753555
0.15169601 1.5316577 3.8279731
0.13577974 1.5249301 3.8293438
0.1380713 1.5733961 3.8041985
0.14886476 1.5237892 3.7995286
0.12715416 1.513745 3.7742107
0.10357558 1.5600723 3.7228725
0.20941105 1.0206851 5.007237
0.15566313 1.0368482 4.945395
0.17361088 1.0688566 4.8973722
0.1899465 1.0644108 4.8609586
0.18075611 1.0940226 4.8083739
0.15703453 1.12751 4.7819023
0.20435275 1.1046922 4.7598948
0.18274876 1.1105233 4.7136889
0.20404422 1.1564653 4.7095499
0.17511022 1.1761377 4.6605382
0.14743543 1.1784698 4.6105514
0.16291371 1.2021949 4.5905919
0.17664716 1.2336419 4.5283871
0.15161677 1.2547469 4.5189924
0.1787204 1.2394099 4.4857774
0.16380858 1.2693589 4.4757028
0.18644647 1.2784576 4.4297991
0.13023764 1.2989974 4.380475
0.17527716 1.2598221 4.3598213
0.15530491 1.3492255 4.3068519
0.17737946 1.3370551 4.2700915
0.14761838 1.3256669 4.2893395
0.15785299 1.3350325 4.203311
0.13181341 1.3526911 4.2055373
0.15440628 1.4232986 4.1737914
0.18108913 1.3798982 4.1564384
0.15417498 1.3815554 4.0880332
0.11710891 1.4435687 4.1125154
0.097001076 1.4788688 4.0940967
0.21266608 1.4755894 4.036365
0.13192306 1.4580889 4.0297003
0.13729221 1.4854438 4.0319266
0.17094861 1.4411908 3.9745879
0.16630377 1.4755881 3.9619601
0.10563487 1.5186144 3.8875992
0.15406162 1.5350013 3.8686993
0.14610796 1.5379105 3.8637595
0.14507204 1.5755265 3.8309498
0.14732265 1.565536 3.7900989
0.13290648 1.5597 3.8154464
0.14871241 1.5719041 3.7526917
0.17904928 1.5762851 3.7075543
0.10344061 1.633003 3.6997378
0.18032622 1.0161933 4.976788
0.18828289 1.0215361 4.9608302
0.20764725 1.0749371 4.8992386
0.21129295 1.0776949 4.8591628
0.20060933 1.0637019 4.8114142
0.17835678 1.1149129 4.7959485
0.13440661 1.1569057 4.6937976
0.16258591 1.1556628 4.7029014
0.20825347 1.1849946 4.7136159
0.1621342 1.1757981 4.6432281
0.18307021 1.1776476 4.6259189
0.18269897 1.198303 4.5302911
0.21386829 1.2183032 4.5297799
0.17480485 1.2103564 4.4969826
0.14347456 1.2492442 4.4713297
0.16575673 1.2667425 4.426363
0.20377462 1.2484864 4.4244323
0.16785532 1.2976195 4.3479185
0.23280478 1.2981542 4.3303256
0.19973794 1.3363856 4.2790332
0.13833006 1.3337998 4.2567167
0.17855436 1.3347334 4.2105761
0.14152999 1.3491729 4.2156196
0.16415663 1.3585526 4.1731563
0.1665637 1.4076178 4.1341329
0.1828503 1.4045956 4.1089001
0.18787941 1.4107085 4.0991101
0.16734722 1.4251795 4.0609112
0.1810787 1.4640304 4.0638146
0.1558308 1.4705567 4.0105705
0.17339347 1.4665729 3.9720523
0.13476418 1.4653064 3.9437549
0.14436245 1.4814612 3.9334936
0.15878119 1.5283726 3.9080367
0.12700607 1.5307887 3.874299
0.14951056 1.5251093 3.867805
0.16202554 1.5417393 3.8421724
0.13514717 1.5502487 3.8201082
0.17679586 1.5729752 3.7630589
0.14291839 1.5892491 3.7847707
0.1565699 1.5838108 3.7496397
0.14938939 1.5834626 3.7350926
0.18973872 0.99131107 4.9992933
0.14802124 1.0478338 4.9385343
0.20645568 1.0589474 4.9061828
0.22296242 1.0240599 4.8664265
0.19683141 1.0867927 4.8476348
0.19942686 1.1026828 4.8123007
0.20022479 1.1055272 4.7546697
0.18702859 1.1271095 4.7459741
0.18452223 1.1592647 4.690074
0.17117347 1.1653661 4.6267996
0.20684987 1.1801083 4.5850282
0.1777357 1.1986967 4.545155
0.16795208 1.1852977 4.5086884
0.18833733 1.2145534 4.5110383
0.20788801 1.2499715 4.485549
0.17591295 1.2464578 4.4408627
0.202666 1.259557 4.4033394
0.22044982 1.3084394 4.3523159
0.17930062 1.3185747 4.3538322
0.15905127 1.3431036 4.3424459
0.17303303 1.3434693 4.2626781
0.1623925 1.3341789 4.2405891
0.19481617 1.3567581 4.1944809
0.14100087 1.3702456 4.2004876
0.19343367 1.3925738 4.1421428
0.16015016 1.4333509 4.1434479
0.14183718 1.4192476 4.1226563
0.16456872 1.4109806 4.0744472
0.14111359 1.4025002 4.0768561
0.16018087 1.4565805 4.0134368
0.1465832 1.479305 3.9969678
0.15058477 1.4553148 3.9933667
0.19061238 1.4925534 3.9501157
0.14659166 1.52545 3.9188843
0.12924114 1.5047786 3.9118352
0.16525024 1.5251759 3.8812819
0.1478357 1.5044359 3.8426247
0.15073656 1.5372195 3.8277683
0.18544453 1.564252 3.8070085
0.15810853 1.5959699 3.7708378
0.15959941 1.5731615 3.7525134
0.16235732 1.590788 3.7004952
0.2026688 1.003883 4.9731941
0.20716548 1.0041355 4.9442625
0.22807258 1.0513507 4.8823667
0.17098525 1.0398622 4.8616605
0.15244256 1.0922043 4.7954469
0.21444209 1.1508701 4.8164134
0.22261558 1.1100948 4.7407951
0.1914213 1.1739539 4.7489824
0.19030218 1.1373341 4.7047238
0.19885667 1.1416091 4.6570039
0.24112415 1.1625457 4.6045585
0.19623937 1.2244139 4.5716252
0.21649264 1.2091068 4.5449386
0.19570503 1.2543128 4.4934959
0.2026585 1.2436001 4.4616413
0.19603692 1.2469063 4.4684391
0.18270774 1.2892103 4.4441009
0.21399221 1.2482605 4.3849339
0.19742927 1.3160654 4.3880672
0.20165753 1.357637 4.3139443
0.15623996 1.3139577 4.2832432
0.17154068 1.3375067 4.2591071
0.17455722 1.36428 4.2432814
0.20582917 1.3851571 4.195518
0.19274202 1.3938541 4.1751399
0.18603267 1.4077117 4.1481071
0.17919314 1.3964672 4.1095057
0.15136749 1.4288243 4.1070571
0.16341577 1.4725165 4.0863123
0.13176997 1.4260476 3.9663293
0.13492081 1.447444 4.0083733
0.18297935 1.4768966 3.9606426
0.20116881 1.4955589 3.9884868
0.15746009 1.4921432 3.9358976
0.1724675 1.4713823 3.9181893
0.14172751 1.5336037 3.8901649
0.16450453 1.5293926 3.8513417
0.16905025 1.5389026 3.8210835
0.16360615 1.5313077 3.7959807
0.20455648 1.568409 3.7704
0.16625582 1.5361116 3.7798221
0.17180119 1.5664139 3.7364433
0.16742781 1.6125708 3.7449718
0.2171943 1.007746 4.9707346
0.25186256 1.0248628 4.9598126
0.22625826 1.0443733 4.8676853
0.19622935 1.0974362 4.8697867
0.23168243 1.0916586 4.8295751
0.21259426 1.103279 4.79773
0.21479839 1.1047701 4.7909079
0.20290951 1.1028373 4.7276869
0.18261562 1.1391754 4.6721635
0.21899286 1.1985714 4.6277814
0.17934388 1.1996484 4.5931234
0.19900481 1.1823014 4.5667944
0.20180741 1.2202567 4.5297112
0.15191332 1.2710187 4.5049667
0.18560944 1.2133483 4.4094577
0.20644562 1.2762851 4.3855596
0.20699157 1.2502915 4.3979821
0.18903069 1.2825089 4.3600335
0.20098111 1.3241812 4.2959738
0.18228637 1.3106987 4.3169856
0.19821295 1.3281704 4.2624345
0.16990022 1.3656439 4.2512898
0.17100111 1.3805006 4.2266459
0.17808728 1.402912 4.1681023
0.17917746 1.4047194 4.1312356
0.17954253 1.3815964 4.1094337
0.16799521 1.4566793 4.0830832
0.14682624 1.4210504 4.0493259
0.16675358 1.4334679 4.0863171
0.18879828 1.4786919 4.0297031
0.15489124 1.4768393 4.0185122
0.16587473 1.4611909 3.9970949
0.13409492 1.4761263 3.9268198
0.14428048 1.5302223 3.9028854
0.12380759 1.5236764 3.9191475
0.19434938 1.5185443 3.8025963
0.19399549 1.5355867 3.8661187
0.16689317 1.5244762 3.8257172
0.18673484 1.5903269 3.8121345
0.15537593 1.5781436 3.7884393
0.19163924 1.5762454 3.7546463
0.16706109 1.5728805 3.7019522
0.21124494 1.0408663 5.0175486
0.21916376 1.0194006 4.9650989
0.20410357 1.0659521 4.9121456
0.24927366 1.0585217 4.8619943
0.21411595 1.0628037 4.8337865
0.24561289 1.1051615 4.7545347
0.20645571 1.1655147 4.7685232
0.24766532 1.1153293 4.7243137
0.2228754 1.1445353 4.7188954
0.21294327 1.1769587 4.6123424
0.22123455 1.1578958 4.6145597
0.2060273 1.1960783 4.5588784
0.19903916 1.209524 4.5360441
0.2300788 1.1866316 4.5008521
0.21188697 1.2689282 4.4930506
0.20281208 1.2780111 4.4424639
0.21964613 1.3013734 4.3889375
0.17740792 1.300249 4.372613
0.17271781 1.3025762 4.3608651
0.19197176 1.3073508 4.3055201
0.19229247 1.3490919 4.2366033
0.19032773 1.3372066 4.2347512
0.16455039 1.3116628 4.2407274
0.20361073 1.37725 4.2201047
0.21362406 1.3361181 4.1863875
0.16017014 1.3806593 4.1728225
0.19881435 1.4100724 4.1262822
0.16752395 1.4372191 4.1251907
0.17981711 1.4287602 4.0193772
0.18468338 1.4336474 4.0306144
0.21264108 1.4710261 4.0065475
0.17922187 1.4504428 3.9927752
0.19369116 1.487175 3.9518943
0.18306449 1.5260342 3.9017527
0.21690321 1.5053948 3.9083447
0.18686785 1.535063 3.8365343
0.16001269 1.54541 3.8605824
0.18378325 1.5469035 3.8289077
0.17195296 1.5228076 3.8035116
0.15471995 1.554327 3.8178494
0.20199771 1.618832 3.7461815
0.16785859 1.5831718 3.7144547
0.23996583 0.99239337 4.9747205
0.22430538 1.0245435 4.942925
0.24077947 1.0298573 4.9009166
0.22863375 1.0404574 4.8868356
0.23770168 1.0803919 4.794899
0.22226484 1.0790499 4.8300314
0.19876066 1.0877616 4.7441187
0.19039592 1.1346179 4.7649164
0.22286586 1.1407825 4.6927185
0.21918288 1.173247 4.6619029
0.22910324 1.153084 4.5953598
0.22070506 1.1861173 4.585587
0.21130879 1.2142223 4.5585575
0.20654757 1.2208462 4.4988146
0.20665088 1.201708 4.4862599
0.23709834 1.2739974 4.4474754
0.19526827 1.2735534 4.4136558
0.17388965 1.2744921 4.3832994
0.21286872 1.3184352 4.3523388
0.18961532 1.3124627 4.3165226
0.23048097 1.4016333 4.2607269
0.2152153 1.3419676 4.2697535
0.21381216 1.3340032 4.2392492
0.20123953 1.3730793 4.1936064
0.21136488 1.4176446 4.1894765
0.18799153 1.4069422 4.1274619
0.19397427 1.4324408 4.1032629
0.17950918 1.4426981 4.0833998
0.19533816 1.4199517 4.0576577
0.17963113 1.4370033 4.0386395
0.21627857 1.446592 4.0138183
0.19350843 1.4640893 3.9566176
0.20374627 1.5025856 3.9334383
0.17648207 1.464184 3.9672217
0.19747895 1.4992828 3.925174
0.20564908 1.5124621 3.8767316
0.15921786 1.5871184 3.8474674
0.19935662 1.5519018 3.8020117
0.18437627 1.5776088 3.8092344
0.19961242 1.5427735 3.7939451
0.17533985 1.5923545 3.7492449
0.17168373 1.5907531 3.7496195
0.15481965 1.560873 3.7267089
0.26240116 1.0230585 4.9858918
0.28026745 1.0382025 4.8967905
0.27730018 1.0747339 4.8713064
0.23088427 1.0510963 4.8729143
0.24609961 1.0889239 4.8158817
0.22124627 1.0876889 4.7602386
0.2161127 1.1433706 4.7494235
0.28239378 1.1834419 4.7172503
0.24902613 1.1287818 4.6495948
0.21844868 1.178197 4.6439447
0.19305666 1.2022511 4.5698986
0.18254755 1.2008094 4.5497494
0.22187772 1.2204756 4.5264554
0.22745436 1.2260414 4.5206313
0.21001305 1.2456691 4.4613943
0.17496885 1.2632998 4.4089041
0.23291859 1.2859935 4.3738098
0.20379519 1.3101871 4.3730326
0.24209055 1.3244565 4.326376
0.23743673 1.312991 4.3233218
0.21665515 1.3449097 4.2619343
0.1950448 1.3731811 4.2597971
0.22780961 1.3667822 4.1954556
0.20117575 1.3508118 4.1708584
0.20679873 1.4163513 4.167716
0.20274104 1.4350408 4.0881786
0.16371609 1.3929738 4.093751
0.20151469 1.3845464 4.0805054
0.19787811 1.4679984 4.0407658
0.22503705 1.4733543 4.0328465
0.17740679 1.431801 3.971467
0.20529468 1.4553736 3.972599
0.16694872 1.4703087 3.9163313
0.18718062 1.5166819 3.8992827
0.18359721 1.5450407 3.8751233
0.19240534 1.5345783 3.8569822
0.1891724 1.5266614 3.8433912
0.18157572 1.5424265 3.8531523
0.18832022 1.5875392 3.7922451
0.17909175 1.5759051 3.768177
0.18992852 1.5663062 3.6836238
0.20945761 1.5797445 3.7101839
0.26028329 1.0155221 4.9767609
0.25856 1.0183978 4.9281955
0.30478683 1.0553367 4.9278154
0.2539393 1.0787632 4.8854718
0.22222644 1.1056739 4.8524151
0.27403843 1.0937729 4.8021355
0.23101278 1.1366838 4.7207947
0.25938323 1.1450608 4.6669741
0.2446813 1.1144241 4.6654162
0.24485767 1.1574967 4.6342473
0.27268249 1.1968074 4.6060638
0.23747475 1.1842347 4.5520191
0.2456155 1.1949064 4.5473728
0.20090449 1.2239652 4.5057492
0.2160313 1.2475973 4.4720411
0.2012614 1.2913867 4.3990841
0.1887376 1.2660795 4.4228916
0.23682848 1.2908156 4.3970428
0.22854297 1.3389797 4.3579597
0.20536356 1.3252774 4.3197026
0.20842056 1.3369889 4.3064761
0.21085826 1.3375208 4.2402878
0.20690747 1.3816247 4.1963911
0.21257596 1.3432648 4.1764121
0.19000089 1.3877867 4.1537166
0.18261483 1.3827149 4.1344275
0.19942155 1.4154429 4.096386
0.20502481 1.4193393 4.0592923
0.20109093 1.4450399 4.0866294
0.21717098 1.4287287 4.0519862
0.21366972 1.4517148 3.9830139
0.23274392 1.4534173 3.9375689
0.21259667 1.4981395 3.9583166
0.16711849 1.4869002 3.9335005
0.17750853 1.4775645 3.9094276
0.19649808 1.4918532 3.8712552
0.2056766 1.5226563 3.8327775
0.20274152 1.5507457 3.8117511
0.19490567 1.5361576 3.7780082
0.16445285 1.583326 3.7860537
0.18982843 1.5843011 3.7437911
0.1686177 1.5888267 3.7372196
0.25603095 0.98891604 5.0279164
0.26679137 1.0260329 4.965189
0.26559454 1.0605913 4.9100766
0.25757608 1.0636622 4.8819551
0.2672191 1.0756772 4.8589501
0.24712034 1.1235484 4.8370013
0.26880166 1.1038792 4.7807198
0.2429049 1.1010942 4.7337832
0.26425126 1.1621706 4.7388153
0.2433082 1.1639332 4.6141534
0.22943792 1.1935956 4.6098104
0.22861075 1.2576864 4.6027699
0.23491959 1.1882828 4.5325103
0.21040264 1.2177889 4.504436
0.20868433 1.2627217 4.4689193
0.2427253 1.2890323 4.453598
0.23811084 1.2664632 4.3764758
0.21257132 1.2901073 4.3774219
0.2434884 1.3056229 4.3468404
0.24625669 1.3259683 4.3452106
0.22850686 1.3036946 4.3107362
0.199384 1.3382373 4.2313476
0.23818059 1.4090018 4.2561383
0.20458838 1.391844 4.2173996
0.22521596 1.4118142 4.1681843
0.2457996 1.3941425 4.1466794
0.23332989 1.3640817 4.0970707
0.23110467 1.3966273 4.0830946
0.19939086 1.4375974 4.0685387
0.22978455 1.4374993 4.0037727
0.15278047 1.4410028 4.0433149
0.19919752 1.4520221 3.9983504
0.24060172 1.4422086 3.9509523
0.22950628 1.4794464 3.9574492
0.20890109 1.5121496 3.9231973
0.20422211 1.5458611 3.9279399
0.22580765 1.5256901 3.859966
0.19941124 1.5303667 3.7943537
0.20935194 1.5943404 3.8043413
0.23117554 1.5492884 3.799958
0.1954409 1.600171 3.749212
0.20899008 1.5899904 3.7331431
0.20643789 1.6262022 3.7472
0.28560144 1.0417329 4.9866486
0.2755841 1.0133866 4.9078689
0.25125858 1.0488482 4.885529
0.25298116 1.0599215 4.8487482
0.25202239 1.0955356 4.7867694
0.2861577 1.0844586 4.7755508
0.25231904 1.0795809 4.7374129
0.27771923 1.1422999 4.7063842
0.25868738 1.1720401 4.6443543
0.29211393 1.1890552 4.6197753
0.20439038 1.1870513 4.5813527
0.22085996 1.1618478 4.5374904
0.23234922 1.2086123 4.5081053
0.21259052 1.2443914 4.4776959
0.25161463 1.2319552 4.4948831
0.26002404 1.2616179 4.4400387
0.22898558 1.2930932 4.4045496
0.23358822 1.3137434 4.3448906
0.2454748 1.2940933 4.3729782
0.25129974 1.3150628 4.3015456
0.24513903 1.3179539 4.2658391
0.20301098 1.3559451 4.2444062
0.21256353 1.3792539 4.2357097
0.2374288 1.3827083 4.1751575
0.25552952 1.399737 4.1167412
0.2280332 1.4191697 4.1252012
0.17439626 1.4172527 4.0897269
0.18681633 1.4092689 4.0949349
0.21878573 1.4555049 4.0769849
0.19394292 1.4476889 4.0166116
0.21198373 1.4538429 3.9897118
0.24342704 1.4784251 3.9854312
0.21413282 1.5045699 3.94561
0.19872141 1.4961102 3.8870366
0.19517106 1.493713 3.8777978
0.18838549 1.5081582 3.876514
0.20526506 1.5118783 3.8660979
0.1890329 1.5438529 3.8277698
0.21355185 1.5633092 3.7791476
0.22930744 1.5946355 3.7580032
0.24340597 1.5913326 3.7381802
