# .PCD v0.7 - Point Cloud Data file format
VERSION 0.7
FIELDS x y z
SIZE 4 4 4
TYPE F F F
COUNT 1 1 1
WIDTH 1527
HEIGHT 1
VIEWPOINT 0 0 0 1 0 0 0
POINTS 1527
DATA ascii
2.0055454 1.1281857 4.5218706
2.000617 1.1785007 4.4865084
1.9805913 1.1814274 4.4459519
1.9675094 1.165417 4.4248676
1.9680777 1.2124523 4.387445
1.9209162 1.2227739 4.3552699
1.9110239 1.2343875 4.3194423
1.8917212 1.2329319 4.2955284
1.8874737 1.2733895 4.2582793
1.8642635 1.2876219 4.238317
1.8698562 1.2942828 4.2039051
1.8537736 1.3188891 4.1886492
1.8513198 1.3217138 4.1552968
1.8471614 1.3201774 4.1272044
1.8015733 1.3522553 4.1051173
1.8094814 1.3633678 4.0647359
1.7878438 1.3735049 4.0426636
1.7940873 1.3974493 4.0426931
1.7855909 1.3897995 3.9987946
1.760053 1.4145271 3.9697442
1.750689 1.434768 3.9336395
1.7343191 1.4375246 3.9261928
1.7165941 1.4474367 3.8907125
1.7183688 1.4445654 3.855051
1.717633 1.4697583 3.8210592
1.6944907 1.4654045 3.8185897
1.6854198 1.481046 3.7961431
1.6882496 1.5027568 3.7745178
1.6549054 1.5173002 3.7555408
1.6552409 1.5129851 3.733279
1.6486124 1.5272051 3.6995237
1.6427774 1.542473 3.6815226
1.6287256 1.5827216 3.6533108
1.5052884 -0.57844293 3.3426945
1.4817209 -0.55066174 3.3096182
1.479373 -0.53457433 3.2915859
1.4795086 -0.52787638 3.3003776
1.4664391 -0.49141923 3.2805097
1.4540085 -0.48820132 3.2443376
1.4555032 -0.46738073 3.2515676
1.4448934 -0.43262348 3.2574029
1.4573456 -0.42315573 3.2645252
1.4516472 -0.40212205 3.274188
1.4420332 -0.38449523 3.2663984
1.4488467 -0.39272249 3.264591
1.4506904 -0.35612556 3.2781656
1.4800814 -0.33824056 3.2896271
1.4815404 -0.31514576 3.3046896
1.4821991 -0.30830944 3.3102856
1.4997097 -0.29090258 3.3497875
1.5196147 -0.28736961 3.4002378
2.2142131 0.9104265 4.9670658
2.2138121 0.94860405 4.9319687
2.1698773 0.97666216 4.8890162
2.154006 0.99155384 4.8401718
2.1309168 1.0022651 4.8102822
2.148541 1.0127817 4.7824473
2.1042981 1.025726 4.7471037
2.1009071 1.0599649 4.7080832
2.0928235 1.0960851 4.6480575
2.0653665 1.09462 4.6344514
2.0459468 1.1130338 4.6030393
2.0348825 1.1198759 4.5609899
2.0383661 1.1266845 4.5418949
1.9977114 1.1445947 4.4901953
2.0064917 1.1743851 4.4664445
1.9876672 1.2266614 4.4228921
1.9520127 1.2179158 4.4065332
1.9632047 1.2071418 4.3496623
1.9215692 1.2177573 4.3335104
1.9237741 1.2661279 4.3122678
1.9247661 1.2801344 4.2844601
1.9005953 1.2733289 4.2392106
1.9039954 1.27818 4.2159762
1.8730568 1.3081418 4.2074022
1.8553146 1.3108177 4.1552601
1.8382481 1.3239864 4.1567397
1.8395966 1.3394499 4.0884461
1.8313476 1.3526504 4.0849328
1.8204887 1.3757236 4.0488696
1.8061485 1.3848207 4.0245705
1.7882618 1.398039 3.9975107
1.7845262 1.4160218 3.9598193
1.7717699 1.420837 3.9558668
1.7577266 1.4298284 3.9400399
1.7427219 1.4354149 3.8905411
1.7191801 1.473636 3.8654895
1.7194749 1.4556293 3.833997
1.7132367 1.4813304 3.8265684
1.6929945 1.4947153 3.7884841
1.6674432 1.4964411 3.7607069
1.6768494 1.5140617 3.7492111
1.6718476 1.5082085 3.7278893
1.6468686 1.5266507 3.7104816
1.6385577 1.5558238 3.6909626
1.6334038 1.557979 3.6463525
1.5048653 -0.60282439 3.3729296
1.4784096 -0.5832215 3.323328
1.4784487 -0.54681408 3.2875607
1.4771845 -0.51637131 3.2843144
1.4655192 -0.51591593 3.2827377
1.4638525 -0.48176065 3.2759748
1.4872153 -0.46953109 3.2552199
1.4633182 -0.46066701 3.2762871
1.4657447 -0.40589824 3.2512403
1.4524943 -0.42634922 3.2496822
1.4626225 -0.39771056 3.258213
1.4718449 -0.39374217 3.2736239
1.4679744 -0.35912785 3.2770886
1.4757506 -0.32755351 3.2895339
1.4799249 -0.3308183 3.300993
1.483544 -0.31113824 3.3086159
1.5074948 -0.30035809 3.3541026
1.5226066 -0.27648488 3.3887031
2.232837 0.92686409 4.9777708
2.2054858 0.95185745 4.951417
2.1845524 0.95832837 4.8992243
2.1660993 0.96063679 4.8565636
2.1509805 0.99631953 4.8175874
2.1545384 1.0072929 4.7772775
2.1378241 1.0287561 4.7678156
2.1241477 1.0307726 4.7152719
2.0912144 1.0594814 4.6729679
2.0730655 1.0757309 4.6643596
2.0593982 1.1058364 4.6024542
2.0522299 1.1345291 4.5686808
2.0272563 1.1509515 4.5568752
2.036016 1.1691631 4.504117
1.9938171 1.1605731 4.47258
1.9749992 1.1909083 4.4298625
1.9822382 1.2048676 4.4137645
1.9583995 1.2116406 4.3839579
1.9562596 1.2251226 4.3571424
1.9283494 1.2676933 4.3225918
1.9213763 1.2588484 4.3008962
1.9216279 1.2791939 4.2569642
1.8972019 1.2860581 4.2442451
1.8840922 1.3065255 4.1953583
1.8808265 1.3242748 4.1671314
1.8490121 1.3147277 4.1512032
1.8385187 1.3433586 4.1205215
1.8180844 1.3619167 4.091959
1.8206052 1.3699663 4.0568867
1.8102546 1.3679943 4.0511651
1.802304 1.4059509 4.0115738
1.7885273 1.3983437 3.9663823
1.746485 1.4178387 3.9590046
1.7543674 1.4381055 3.9319692
1.7623376 1.4212821 3.9112012
1.7287725 1.4525957 3.8780875
1.7216855 1.4739348 3.8519709
1.7165836 1.4650435 3.8482606
1.7418506 1.4843405 3.8107603
1.6962593 1.504709 3.7978716
1.6792139 1.4922594 3.760246
1.6803253 1.5278368 3.7233934
1.6559333 1.5141833 3.7200475
1.6505017 1.5561868 3.7042897
1.65829 1.5860077 3.6760063
1.6322447 1.5722544 3.6260531
1.4895954 -0.57402164 3.3187149
1.4639039 -0.55051076 3.2979836
1.4890155 -0.533485 3.2899837
1.4704727 -0.50076056 3.2688382
1.4780762 -0.47966936 3.268903
1.4767834 -0.49352202 3.2659304
1.4842693 -0.4507679 3.2611291
1.4770145 -0.44241264 3.2610321
1.4764405 -0.42237607 3.2568772
1.4766467 -0.41235918 3.2647529
1.4690759 -0.39009717 3.2723241
1.4735304 -0.36898267 3.2618251
1.4569803 -0.33314985 3.2799008
1.4787486 -0.34353414 3.2796838
1.4791889 -0.32228971 3.3029613
1.4895606 -0.29022792 3.3482833
1.4936272 -0.29420951 3.3651321
2.2573919 0.91389412 4.9853249
2.2237093 0.93472385 4.9504852
2.2184916 0.95376807 4.9134402
2.2026091 0.97337508 4.8690386
2.1697233 0.99162418 4.8336153
2.1607423 1.0092927 4.7946754
2.1406546 1.0096045 4.7540874
2.1305766 1.0519522 4.7340493
2.1000562 1.0609756 4.6926069
2.0857956 1.0686523 4.6444263
2.0628462 1.0870287 4.6288719
2.059525 1.1139065 4.5804729
2.034482 1.1148348 4.5486541
2.0308237 1.1649063 4.5090013
2.0109246 1.170239 4.4797683
2.0085235 1.1590391 4.4623318
2.0007346 1.1926831 4.4161978
1.9819056 1.2226974 4.3937793
1.9804752 1.2270905 4.3517737
1.9657761 1.2379574 4.3438277
1.9584261 1.2640282 4.308857
1.9248261 1.2483274 4.2621632
1.8935211 1.2653887 4.2360945
1.8909742 1.3082929 4.2183204
1.8809996 1.2974408 4.1982222
1.8547523 1.3324565 4.1674104
1.8661208 1.3388385 4.1155262
1.8481302 1.3360264 4.0929337
1.8279188 1.3608599 4.0692768
1.813036 1.3854862 4.0437317
1.8010721 1.3858639 3.9889762
1.8022078 1.42347 3.9928458
1.7875564 1.4104096 3.9788117
1.7745401 1.4328136 3.9376853
1.7661806 1.4388444 3.8972304
1.7393612 1.4450188 3.8901055
1.7266372 1.463321 3.8823581
1.7188154 1.457734 3.8382745
1.7306442 1.4847794 3.8001099
1.7086314 1.4976046 3.8051095
1.7039033 1.5159878 3.7745078
1.6767536 1.5443329 3.7579784
1.6726246 1.5326948 3.7338467
1.6575567 1.5376624 3.7196863
1.6511457 1.5514153 3.6953359
1.6488068 1.5605627 3.6593468
1.5176554 -0.59291154 3.340425
1.5056863 -0.56244111 3.3061512
1.4735793 -0.53621453 3.3007143
1.470736 -0.50505161 3.2696922
1.4882723 -0.50056696 3.2617655
1.4722511 -0.49396995 3.2570782
1.4612126 -0.45953429 3.2439032
1.4557805 -0.45165092 3.2673838
1.467397 -0.43320766 3.266495
1.4564372 -0.39732003 3.2639618
1.4690748 -0.37701225 3.2705088
1.476153 -0.37158537 3.277102
1.4890546 -0.3485246 3.2703562
1.4817287 -0.33499429 3.2632127
1.4821944 -0.32241148 3.3094203
1.5046262 -0.30486962 3.3171885
1.4986615 -0.29215208 3.3683259
1.5263863 -0.28831235 3.3962028
2.2486176 0.93036574 4.9630322
2.2239335 0.95796287 4.9234371
2.2058754 0.96337229 4.9075408
2.1980722 0.98120749 4.8390741
2.1755264 1.0161157 4.8366785
2.1446598 1.0205866 4.7953801
2.1322131 1.0502837 4.7392197
2.1376691 1.056524 4.6994357
2.1211596 1.0579922 4.6669588
2.0869212 1.0901825 4.6323981
2.0917549 1.1150383 4.5998616
2.0842886 1.1204562 4.5634437
2.0558295 1.1383325 4.5218987
2.0283368 1.1570204 4.5009575
2.0218437 1.1660882 4.4774661
1.9918768 1.2112049 4.4293675
1.9944892 1.1899692 4.4138341
1.9753178 1.1961844 4.3711071
1.9655534 1.2210948 4.3231263
1.9478452 1.239122 4.3105459
1.9478673 1.2671121 4.2789035
1.9184046 1.2681361 4.2526164
1.9063395 1.3035294 4.2166429
1.8981211 1.3107727 4.1865468
1.8957244 1.3040036 4.1612382
1.8697038 1.3404868 4.1153617
1.8561985 1.3207953 4.1441193
1.8493447 1.3808352 4.0696936
1.8343809 1.380496 4.0581369
1.8263866 1.3805966 4.0156898
1.8292354 1.4010888 4.0004816
1.8022929 1.4115379 3.957684
1.7832801 1.4102263 3.9366305
1.7682469 1.424674 3.9166815
1.7581629 1.4439086 3.8998609
1.7470996 1.4534726 3.8775764
1.7327224 1.4779551 3.8450317
1.7337451 1.461481 3.8097205
1.7325726 1.4821752 3.805114
1.7217442 1.5100658 3.7900517
1.7020174 1.5138159 3.7642324
1.692498 1.5318125 3.7161732
1.6625605 1.5298946 3.7186518
1.6721206 1.5466541 3.7094388
1.6650175 1.5369018 3.6764719
1.5116013 -0.59076715 3.3441443
1.5040312 -0.56825441 3.3236909
1.4756479 -0.56333512 3.2958729
1.4831848 -0.50540364 3.2963171
1.4834639 -0.50537211 3.263545
1.4815061 -0.49040741 3.2662408
1.4964588 -0.46313781 3.2619283
1.4849911 -0.47095639 3.2538416
1.4731063 -0.43238518 3.2757196
1.4662025 -0.41808525 3.2634141
1.4713452 -0.40086323 3.2753072
1.4745766 -0.39260328 3.2546029
1.5065922 -0.3686063 3.2756352
1.4687052 -0.33928674 3.2789962
1.4842565 -0.32023939 3.3065138
1.4993356 -0.31359297 3.3191266
1.5173528 -0.29799598 3.3316314
1.5131447 -0.27864125 3.3761768
2.247334 0.92762911 4.9586506
2.2448101 0.94267327 4.9344258
2.2233121 0.95933706 4.9086905
2.178544 0.96672755 4.8588643
2.1800828 0.99972898 4.8219719
2.1860344 1.0265504 4.7680483
2.1543813 1.0372894 4.7448096
2.1399617 1.0550413 4.7144089
2.1155028 1.0442871 4.684494
2.1065104 1.0945748 4.6312213
2.0826116 1.0983375 4.6160326
2.0860963 1.1094466 4.5510736
2.0749047 1.1391243 4.5432868
2.0578697 1.1410339 4.5158906
2.0301847 1.1517633 4.4830017
2.0001779 1.1909002 4.4310603
2.0132356 1.1844978 4.4245038
1.9795773 1.2196666 4.3743968
1.9714456 1.2254769 4.3541465
1.9709762 1.2468816 4.3201618
1.9438078 1.2521969 4.2922859
1.9400978 1.2765846 4.2526851
1.9232886 1.3004936 4.2456422
1.8958466 1.303216 4.190064
1.8822913 1.3174833 4.1531615
1.8917471 1.3204498 4.1379499
1.8532714 1.3347752 4.1084061
1.845271 1.3722246 4.0821419
1.8339427 1.3689249 4.039989
1.8382488 1.3854419 4.0383191
1.8049215 1.4004958 4.0105295
1.8053164 1.424237 3.9846029
1.8018916 1.4180429 3.9556134
1.7993251 1.4290582 3.9282959
1.7702601 1.4314694 3.9207635
1.7710133 1.4553134 3.8850336
1.7449481 1.4653646 3.8525712
1.7511332 1.4664477 3.8351097
1.7252775 1.482828 3.8145678
1.7184397 1.4817396 3.8029304
1.6985965 1.5080868 3.7566381
1.6770573 1.5301985 3.7371221
1.6865335 1.5176837 3.7202375
1.6860504 1.5427771 3.7026405
1.6691737 1.5383294 3.672574
1.6535344 1.5489343 3.6535614
1.5157062 -0.56938529 3.3195305
1.4901816 -0.55090773 3.3120348
1.4935287 -0.52308083 3.2732553
1.49992 -0.50714666 3.2782695
1.485427 -0.48622039 3.2435243
1.4988551 -0.47801822 3.2796731
1.4798074 -0.46303654 3.261822
1.492267 -0.43696126 3.2718577
1.4824674 -0.41598579 3.2626429
1.4879068 -0.39530915 3.2635729
1.4770644 -0.36190307 3.2703025
1.5058898 -0.35563913 3.2724848
1.4838561 -0.35335445 3.2776871
1.5072329 -0.35083228 3.297895
1.4990335 -0.30269662 3.3085017
1.5476557 -0.30010679 3.3156698
1.5324366 -0.2617183 3.3503973
2.2744243 0.89828169 4.9886661
2.2454185 0.91218519 4.9563851
2.2464471 0.95277584 4.9195509
2.22645 0.97056121 4.8828444
2.2084293 0.9989056 4.8390536
2.1869636 1.0045378 4.7866397
2.1604438 1.0223511 4.7603769
2.1436157 1.0488652 4.7212858
2.1367507 1.0663052 4.7016392
2.1325366 1.1006649 4.6618958
2.0848169 1.081267 4.6086717
2.0861018 1.1081992 4.580864
2.0742209 1.1352136 4.5439887
2.0556557 1.1488388 4.5186543
2.0660365 1.1735944 4.474503
2.0283926 1.1647187 4.4557166
2.0181973 1.1920612 4.4227858
1.9884589 1.20829 4.3840418
1.9776574 1.2194792 4.357904
1.9783036 1.2467027 4.345006
1.9546149 1.2647992 4.2979112
1.9285694 1.2840801 4.2669163
1.9282376 1.290001 4.2279444
1.9254627 1.2880338 4.2016616
1.8978446 1.3233943 4.1807909
1.8844906 1.3137534 4.1577172
1.885987 1.3272172 4.1207762
1.8601786 1.3322581 4.0913219
1.8488224 1.3716415 4.0460501
1.8477918 1.3818537 4.050271
1.8340098 1.3788925 4.0189204
1.8019921 1.4046125 3.9935985
1.7960087 1.4058149 3.9694591
1.8089945 1.4162191 3.9362247
1.7854621 1.4359869 3.9021158
1.7702214 1.4554427 3.8815894
1.7621192 1.474551 3.8791742
1.7592417 1.4762014 3.8369346
1.7276499 1.4866145 3.8253884
1.7271326 1.5041219 3.7863734
1.7191687 1.5058265 3.7736003
1.708259 1.5081298 3.7601402
1.6999795 1.5386833 3.7323189
1.6865032 1.547549 3.7040572
1.6606919 1.5361845 3.6748173
1.6696895 1.5416977 3.6822946
1.534434 -0.58988768 3.3357375
1.5203586 -0.56012875 3.3128097
1.5033516 -0.53371972 3.2814515
1.4986271 -0.52518892 3.2704091
1.5023539 -0.48866254 3.26776
1.4810076 -0.47882894 3.2633865
1.485269 -0.46464393 3.2708547
1.4790676 -0.44288215 3.2602611
1.5021611 -0.43329704 3.2591927
1.4989666 -0.41226423 3.2541301
1.4875172 -0.40078422 3.2519126
1.4925308 -0.36899239 3.2777343
1.4817003 -0.37118122 3.2918098
1.4983495 -0.34742239 3.2827282
1.4992026 -0.31395149 3.3141773
1.5283682 -0.30183056 3.3244991
1.5395147 -0.28951377 3.3747754
1.5474317 -0.30209225 3.4114888
2.2647631 0.90976793 4.9688516
2.2496819 0.93135351 4.9360657
2.2633123 0.97353059 4.8927479
2.2136695 0.98012573 4.8427591
2.2110541 1.0277631 4.8113904
2.1812012 1.0164131 4.765223
2.178252 1.0402526 4.7316303
2.1477318 1.0613214 4.7184091
2.1334994 1.0844769 4.6800084
2.1198742 1.0849895 4.6354232
2.1026673 1.1027318 4.5919337
2.0913899 1.1307757 4.562325
2.0643644 1.1261812 4.538116
2.0730791 1.1467476 4.4925332
2.0346467 1.1624359 4.4651809
2.0180552 1.2046312 4.4439025
2.0245612 1.2151997 4.3910804
2.0069134 1.2081928 4.3739719
1.9893212 1.2280811 4.3229752
1.9622171 1.2306414 4.3067183
1.9552763 1.2582103 4.2792702
1.950297 1.2730492 4.2499928
1.9131426 1.2793224 4.2197061
1.9144527 1.3141305 4.1930895
1.9114212 1.3092607 4.1538482
1.896834 1.3267686 4.1356673
1.8801252 1.3630248 4.1182904
1.8508101 1.3393403 4.0901504
1.8397545 1.3718568 4.0413866
1.8340548 1.3770064 4.0333552
1.8306266 1.398146 4.0048265
1.8132112 1.4084158 3.9896109
1.7996459 1.4143335 3.9420412
1.7826996 1.4399921 3.9179878
1.7720664 1.4533434 3.9183199
1.7689114 1.4755921 3.8876095
1.7631487 1.4644103 3.8561666
1.7583368 1.4807519 3.8379257
1.7340924 1.4749848 3.8259892
1.7335675 1.4862276 3.7768145
1.7148838 1.5084099 3.744132
1.6953999 1.5212457 3.738874
1.683632 1.551199 3.7195773
1.666792 1.562629 3.6862278
1.6713275 1.5593077 3.6642962
1.5400784 -0.59226817 3.3458695
1.5134972 -0.55534488 3.3001556
1.5081736 -0.5300017 3.3037939
1.5207062 -0.51858497 3.2587919
1.4891064 -0.52004933 3.2669396
1.5006248 -0.49571627 3.2463949
1.4980644 -0.46447033 3.2705905
1.4873497 -0.45758206 3.2601812
1.4905368 -0.45124906 3.248754
1.497268 -0.42309037 3.2469871
1.5088701 -0.39458653 3.2713783
1.5025036 -0.38814241 3.257349
1.5137239 -0.3690992 3.281234
1.500361 -0.3571229 3.2854753
1.527101 -0.33992893 3.2890124
1.5144635 -0.31168947 3.3269053
1.5230217 -0.30897105 3.3409688
1.5485915 -0.27354097 3.3880761
2.2829325 0.92894638 4.9760823
2.2700133 0.95597875 4.9350486
2.2509029 0.97470933 4.9111114
2.2247984 0.99153394 4.8549709
2.2300091 0.99276233 4.8283868
2.2064035 1.016524 4.766995
2.1926978 1.0326151 4.7347436
2.1603625 1.0571444 4.7115636
2.1308465 1.0702423 4.6844311
2.1098151 1.0944742 4.6425695
2.1094856 1.1271417 4.59306
2.0938585 1.1273315 4.5765104
2.0904322 1.1242868 4.5257411
2.0518777 1.1209325 4.4932213
2.057215 1.1601887 4.4603539
2.0410659 1.1753749 4.4257107
2.0144906 1.1655244 4.4144096
1.9942192 1.205573 4.3695087
1.9817574 1.2220318 4.3490157
1.9717385 1.2573832 4.3365097
1.9535252 1.2643707 4.2800784
1.9507285 1.2806386 4.2667165
1.9319413 1.2874423 4.2374544
1.9249591 1.3013443 4.2143698
1.9278612 1.3303872 4.1775231
1.8976841 1.324569 4.1480823
1.9001755 1.347032 4.1144924
1.8739729 1.3738226 4.1127691
1.8611842 1.3702519 4.0452867
1.8494015 1.3720236 4.0304751
1.8331767 1.3975779 4.0111165
1.8126608 1.3976595 3.998966
1.8071238 1.4072322 3.960149
1.8281627 1.4335134 3.9241581
1.7954178 1.453346 3.9085031
1.7804102 1.4404682 3.8645644
1.7739769 1.4610814 3.852468
1.7641654 1.4679637 3.8266184
1.7497418 1.4792387 3.800889
1.7468023 1.5206474 3.7891541
1.7084383 1.5326079 3.7581668
1.7290097 1.5005997 3.7651186
1.7055916 1.5292823 3.7212665
1.6916274 1.5597788 3.6762264
1.6761746 1.5395976 3.678442
1.674937 1.5684903 3.6414194
1.542033 -0.56632876 3.3186157
1.5169998 -0.54192239 3.3150105
1.5191119 -0.52363217 3.2815135
1.5145029 -0.50558066 3.2951949
1.509603 -0.48457605 3.2537603
1.5047984 -0.45695874 3.2582371
1.4986261 -0.45269108 3.2552066
1.5113256 -0.44025958 3.2655859
1.5049222 -0.41995332 3.259361
1.5151073 -0.40051568 3.247128
1.5346444 -0.37340274 3.270164
1.5215948 -0.36099386 3.2819264
1.5104853 -0.3640756 3.2997143
1.5219439 -0.33357471 3.2938006
1.5037458 -0.33803284 3.2948248
1.5438416 -0.32136336 3.3173807
1.566516 -0.2816644 3.3559988
2.2927096 0.9188543 5.0147486
2.2691495 0.93232298 4.9506311
2.2686489 0.95919913 4.9042926
2.245167 0.958597 4.8667727
2.2352355 0.98622483 4.8261628
2.2227831 1.0085039 4.7860818
2.1901422 1.0192276 4.7713022
2.1970356 1.058313 4.7453265
2.1591947 1.0457543 4.684793
2.1526039 1.0703038 4.6481657
2.1375704 1.0849726 4.6038995
2.0897357 1.1085321 4.5784912
2.1011431 1.1195689 4.5546923
2.0795882 1.1354351 4.519249
2.0631967 1.1478636 4.4849424
2.0627861 1.176657 4.456531
2.0314527 1.1948346 4.421381
2.0091615 1.198368 4.3828535
2.0065734 1.2300774 4.3633218
1.9834207 1.2392678 4.3265452
1.9864447 1.2551373 4.3081203
1.9565858 1.2662702 4.2514567
1.9337032 1.2841043 4.2440104
1.929268 1.3052976 4.1959858
1.920428 1.308113 4.1817927
1.9123052 1.2951106 4.1577978
1.899137 1.3365278 4.1260424
1.8830166 1.3218641 4.0794549
1.8867733 1.3544267 4.0694232
1.8701909 1.3896255 4.0356951
1.8281372 1.3851812 4.0020719
1.8479816 1.3987358 3.9796221
1.8190709 1.4053173 3.962595
1.8179286 1.4169695 3.951834
1.8052248 1.4338911 3.9324884
1.799373 1.4572723 3.8997462
1.7754591 1.4558768 3.8886781
1.7792261 1.4636017 3.840843
1.7562708 1.4797063 3.8406863
1.7455466 1.4933432 3.7995253
1.7277962 1.5190302 3.7623916
1.7479845 1.5163232 3.7517397
1.7401084 1.5231483 3.719594
1.7009773 1.542394 3.7128694
1.6982148 1.5509915 3.6871104
1.6738816 1.5584824 3.6787634
1.5354165 -0.59595537 3.3351746
1.5239104 -0.54535556 3.3087163
1.5212671 -0.54069257 3.2886083
1.5258591 -0.48802462 3.2897525
1.5102323 -0.49334049 3.2723351
1.5066587 -0.48076555 3.2508745
1.5082949 -0.47959328 3.2534044
1.5005966 -0.43095598 3.2565391
1.5163186 -0.41074717 3.2740421
1.5201498 -0.4182359 3.2526939
1.4973717 -0.39762053 3.2619736
1.5197779 -0.38499349 3.2789862
1.5151763 -0.34810129 3.270874
1.533358 -0.31595817 3.2878633
1.5246408 -0.33428684 3.3147819
1.5290385 -0.30513206 3.3313932
1.5550834 -0.2872805 3.3562448
1.579482 -0.28593606 3.4139702
2.3090777 0.91843104 4.9672117
2.2865794 0.95697069 4.9140282
2.2743964 0.96430844 4.8983374
2.2493732 0.97462112 4.8455782
2.251806 1.0131927 4.81388
2.2202709 1.0409646 4.7822714
2.1940103 1.0349953 4.7393417
2.1782482 1.0523254 4.7019563
2.1651325 1.0833809 4.6561351
2.1390839 1.0812038 4.6301661
2.1288004 1.0950271 4.5965519
2.1137934 1.1260302 4.5643783
2.0893493 1.1470946 4.5247231
2.0814154 1.1692673 4.4957905
2.0762963 1.1860749 4.4655943
2.0607471 1.1892109 4.4414039
2.0374095 1.1944216 4.3949995
2.0076191 1.2158873 4.368351
2.0063448 1.234136 4.32618
1.9846842 1.267256 4.3120332
1.9924198 1.2618018 4.2639894
1.9649405 1.2843425 4.2529054
1.9491582 1.2835655 4.2232194
1.9259219 1.2998374 4.1822529
1.9336286 1.317435 4.1642709
1.9183198 1.3451718 4.1485033
1.9220064 1.35551 4.1055846
1.886526 1.3692049 4.0748119
1.8559667 1.3595958 4.045548
1.8712589 1.3729787 4.0181813
1.8563418 1.3959103 4.0115013
1.8219745 1.3907098 3.9730601
1.827042 1.4077727 3.9689252
1.8148847 1.4394715 3.9169292
1.8142171 1.4544872 3.9117312
1.8030803 1.4456828 3.8704355
1.7793111 1.4648355 3.8533258
1.7802404 1.4771367 3.822031
1.7544713 1.4787381 3.8019469
1.741966 1.5005568 3.7644947
1.7324393 1.5103291 3.7620215
1.7043254 1.5336102 3.7348173
1.7050806 1.5559381 3.7091434
1.7247192 1.5442913 3.6872518
1.6917027 1.5517051 3.6610374
1.5583487 -0.58227301 3.3326318
1.5394038 -0.58644092 3.3151906
1.552596 -0.53892267 3.2996769
1.5321002 -0.54121482 3.2686317
1.5283494 -0.51566458 3.2535298
1.5205932 -0.48597047 3.2634571
1.5213115 -0.46381852 3.2551534
1.5314307 -0.42385063 3.2503495
1.50781 -0.44215798 3.2420771
1.523111 -0.43160722 3.233789
1.5151713 -0.38256958 3.270896
1.5115341 -0.38485199 3.2718971
1.5263231 -0.36315367 3.2834158
1.5221841 -0.35503301 3.2901232
1.5254217 -0.35073155 3.292757
1.5479227 -0.30900061 3.325078
1.5465925 -0.30215171 3.3414919
1.5530982 -0.28430638 3.3773973
2.2980871 0.91636008 4.986568
2.2919924 0.94904757 4.921617
2.2839136 0.95452613 4.9112234
2.2597249 0.99077272 4.8467917
2.2199924 0.9881494 4.8173466
2.2220197 1.0116578 4.7948923
2.2080145 1.0278181 4.754353
2.1880741 1.0537888 4.7136774
2.1695483 1.0874544 4.675169
2.1540306 1.0857646 4.641748
2.1484029 1.0841868 4.5940137
2.1161592 1.1224509 4.5676064
2.1050255 1.1376365 4.5318456
2.075675 1.1621256 4.5004826
2.0798538 1.15481 4.4867339
2.0779884 1.1713792 4.425405
2.0470009 1.1930395 4.4069767
2.0375867 1.1962899 4.3938427
2.0249162 1.2288942 4.3506813
1.9946561 1.2403615 4.3284101
1.997198 1.2716299 4.2915759
1.9851369 1.2652056 4.2701387
1.9610802 1.2824712 4.2426224
1.935575 1.2968755 4.2034988
1.9465164 1.3109922 4.1715202
1.9140176 1.3197186 4.1265893
1.9064176 1.3406578 4.1321578
1.8987442 1.3547759 4.0784268
1.8992375 1.3695468 4.0868745
1.8710525 1.3757056 4.0347633
1.831003 1.3966098 4.0012851
1.8369362 1.4046119 3.9893737
1.8400307 1.4347466 3.9689734
1.8353744 1.4212376 3.9394896
1.8023396 1.4413816 3.9187694
1.8085386 1.452929 3.8915389
1.796633 1.4632813 3.8709152
1.7648621 1.4854919 3.8360536
1.7628915 1.476238 3.7982721
1.7627455 1.4968674 3.7645268
1.7355057 1.4994371 3.7571704
1.7417654 1.5222487 3.7389209
1.7416402 1.5418298 3.7154725
1.7201271 1.5462669 3.7064962
1.7018422 1.5483456 3.6755526
1.6853456 1.5612141 3.6467609
1.5486082 -0.58812839 3.3285637
1.5388968 -0.55325258 3.2969012
1.5308667 -0.53532398 3.2723246
1.5228474 -0.50391954 3.2543087
1.5244777 -0.49962822 3.2730501
1.5317311 -0.46123037 3.2673175
1.5107776 -0.44921041 3.2510576
1.5247413 -0.4514524 3.2499757
1.5110484 -0.4096095 3.2622683
1.5242049 -0.40517917 3.2707214
1.5165278 -0.38463378 3.2762554
1.5210214 -0.3726348 3.2627299
1.5070686 -0.35464171 3.2950585
1.5388952 -0.3510536 3.2857819
1.5452384 -0.31513777 3.302316
1.5581174 -0.31190589 3.345876
1.5782734 -0.28158641 3.3826756
2.3034964 0.90698671 4.9905739
2.3072381 0.92961729 4.9684377
2.3062038 0.95705938 4.920207
2.2756419 0.95990229 4.8707328
2.2488804 0.99177688 4.8369298
2.2427056 1.0206882 4.8053989
2.211792 1.026807 4.7542973
2.186779 1.0320128 4.7153306
2.1644378 1.0587643 4.6866007
2.1742647 1.0493779 4.6633053
2.1732895 1.1151488 4.6268053
2.1418245 1.1162788 4.5868378
2.1258094 1.1324251 4.5506277
2.1062391 1.1557337 4.5170403
2.0963864 1.1628389 4.4848852
2.0835831 1.1801571 4.4526777
2.06812 1.1654229 4.4263153
2.0575671 1.1930256 4.3808107
2.041779 1.2116338 4.3486328
2.0350068 1.2477013 4.3428907
1.9804058 1.2544104 4.272769
1.997444 1.2627883 4.269989
1.9814653 1.2809427 4.2368574
1.947017 1.2980825 4.2014332
1.9421933 1.3143513 4.1581039
1.9204609 1.3313478 4.1370139
1.9233646 1.3385737 4.1264362
1.9196099 1.3550632 4.1025257
1.8957607 1.3380387 4.076684
1.8751844 1.3731456 4.0283175
1.8713057 1.3686349 3.9925199
1.8594841 1.398401 3.9771042
1.8493278 1.4294925 3.9747152
1.8377724 1.425903 3.9485815
1.8283219 1.4400117 3.9023275
1.8046427 1.4385558 3.8915982
1.8029722 1.485291 3.8582544
1.7965517 1.4691601 3.8401539
1.7871892 1.4931079 3.8163884
1.7854699 1.49669 3.7998383
1.7637976 1.519616 3.769707
1.7486247 1.5286086 3.7494469
1.7434003 1.526741 3.7351594
1.7242522 1.5338159 3.7029324
1.7153002 1.5472918 3.6967683
1.6896515 1.5546695 3.6379666
1.5580102 -0.59145331 3.340055
1.543277 -0.55110198 3.3161554
1.5318384 -0.54000121 3.2993813
1.5126504 -0.50799429 3.2837262
1.5397459 -0.49588332 3.2648246
1.5250282 -0.47979283 3.2625299
1.5138415 -0.46502939 3.2559762
1.521341 -0.45205587 3.270884
1.5176624 -0.41311806 3.2786732
1.5090123 -0.40265614 3.2540402
1.5177912 -0.39910385 3.2689989
1.5361514 -0.35803685 3.2497232
1.538854 -0.35479823 3.2775912
1.5344833 -0.33282435 3.298605
1.5588524 -0.30754352 3.2911828
1.5456039 -0.32205698 3.3207409
1.5602798 -0.27304223 3.3367722
1.5976137 -0.28334439 3.4009883
2.3196688 0.91680253 4.9652309
2.29986 0.94594783 4.9154077
2.280544 0.95083141 4.8964787
2.2706928 0.98988575 4.8546233
2.262609 0.98881006 4.8268647
2.2409356 1.0105224 4.7663598
2.2219653 1.0459698 4.7457771
2.2039399 1.048111 4.7045307
2.1849558 1.082395 4.6637225
2.1517479 1.0977823 4.6141868
2.1473827 1.1010742 4.6054077
2.1362445 1.1316264 4.5690627
2.1098082 1.1511115 4.540359
2.0927639 1.1536294 4.4914565
2.0928175 1.1851807 4.4662747
2.065943 1.2070616 4.4423747
2.0423496 1.2150846 4.395402
2.021076 1.2134641 4.3747787
2.0154474 1.241707 4.3454809
2.0259242 1.2515138 4.300653
1.9999486 1.2472886 4.2808161
1.9869524 1.2799511 4.2695541
1.9834028 1.2935026 4.1985536
1.9494252 1.3026496 4.1930585
1.938982 1.3114716 4.1615453
1.9453722 1.3301581 4.1235709
1.9260767 1.3350967 4.0959339
1.9201586 1.3555821 4.0760427
1.8917724 1.3697391 4.0455189
1.8878077 1.3993556 4.0322785
1.8713057 1.3939269 4.0042534
1.8853105 1.4249132 3.9649885
1.8383234 1.4129797 3.9577179
1.8426553 1.425006 3.9184978
1.8448974 1.4420905 3.9000499
1.8062817 1.4646789 3.8771944
1.7965138 1.4797206 3.8416381
1.8108189 1.4778872 3.8226826
1.7726427 1.4805017 3.8090992
1.765898 1.5138663 3.7842045
1.7734517 1.5133288 3.7461863
1.7451634 1.5250289 3.7211292
1.7299768 1.5382854 3.7105706
1.7183565 1.5529046 3.7054799
1.7235116 1.5569174 3.6698925
1.5762306 -0.60325581 3.3588881
1.5567458 -0.56208432 3.326344
1.5751152 -0.53581029 3.2827544
1.5375876 -0.51150393 3.2739871
1.5301924 -0.50575143 3.2798085
1.532876 -0.48552138 3.2670476
1.5397127 -0.47035292 3.256618
1.524309 -0.44693145 3.2633948
1.5297287 -0.43301255 3.2409706
1.5155442 -0.40789831 3.2519355
1.5397938 -0.39421079 3.2469702
1.5420192 -0.3763546 3.2580104
1.519785 -0.36295515 3.2691844
1.546995 -0.3407779 3.2883191
1.5366015 -0.33283556 3.2881517
1.5483539 -0.31605518 3.3092458
1.5710297 -0.29819492 3.3334625
1.5856245 -0.27815345 3.3758366
2.3367114 0.93171895 4.9759059
2.3274059 0.92891753 4.9340138
2.3044353 0.95784569 4.9168806
2.2860894 0.97823501 4.8675208
2.2536664 0.9972434 4.8202181
2.2443471 1.0227276 4.7974825
2.2192738 1.0580477 4.7583966
2.2063284 1.0401243 4.7015877
2.186754 1.0705464 4.6904235
2.1618216 1.1003237 4.6363997
2.1689363 1.0841449 4.6139984
2.1485207 1.1310658 4.5849166
2.1444743 1.1304413 4.5362825
2.1184292 1.1431458 4.5192423
2.0911791 1.1737471 4.4745145
2.0909173 1.1769359 4.448987
2.0645406 1.1972461 4.4209552
2.0600326 1.2166089 4.3808765
2.0444169 1.2383103 4.3365636
2.0315382 1.2363058 4.3081121
2.0219321 1.2508962 4.2803831
1.9979852 1.2815084 4.2637143
1.9806826 1.2827283 4.2454123
1.9665881 1.2958068 4.1994019
1.9687179 1.3019313 4.1650782
1.9408857 1.3395555 4.1563101
1.9376138 1.343774 4.1191587
1.919791 1.3500371 4.0914097
1.8996816 1.3532733 4.0559096
1.8946434 1.3646419 4.0423961
1.8749441 1.4046199 3.999922
1.8543137 1.4000599 3.9724617
1.8703146 1.4181325 3.9587896
1.8526164 1.4256271 3.9313753
1.8298706 1.4368559 3.9061003
1.8310241 1.4568155 3.8881543
1.8299651 1.4688088 3.8616488
1.8097235 1.4850912 3.8362212
1.79541 1.5012711 3.8005092
1.7891582 1.4956273 3.7650275
1.7543873 1.4915688 3.7584543
1.7494152 1.5087435 3.7248645
1.7403463 1.5237056 3.7265739
1.7407627 1.5389874 3.6887906
1.7321709 1.5552701 3.6713555
1.7283783 1.5525951 3.6341398
1.5627481 -0.54561692 3.3226418
1.5681251 -0.56195551 3.2831149
1.5511974 -0.52205092 3.2902319
1.5440469 -0.51751018 3.2713695
1.5522144 -0.47344545 3.2614591
1.5375334 -0.46579564 3.264385
1.5464286 -0.47029254 3.2834756
1.5384643 -0.43564945 3.2481794
1.5606228 -0.41283762 3.2663774
1.5430131 -0.41544303 3.2603168
1.5491333 -0.41022819 3.26195
1.5404338 -0.3833271 3.2801363
1.551493 -0.35810846 3.2819579
1.5629864 -0.33196974 3.3094203
1.5619251 -0.33386642 3.3097279
1.5598425 -0.31011489 3.316205
1.571745 -0.269802 3.3685317
2.3655057 0.91690803 4.9916778
2.3567276 0.92287171 4.9265637
2.3265522 0.94517326 4.9049993
2.320899 0.95113784 4.8811817
2.2891672 0.98034579 4.8277044
2.2557497 1.0071013 4.7918835
2.2495234 1.0200905 4.7676353
2.2251248 1.0457485 4.7395597
2.2214777 1.0508521 4.707149
2.1920187 1.0628395 4.6605296
2.1763685 1.0914297 4.6172557
2.162698 1.1011676 4.5772166
2.1455703 1.1330798 4.556643
2.1213541 1.16177 4.5085864
2.1124022 1.1544616 4.4931388
2.1025724 1.1935751 4.4631796
2.0806561 1.1895076 4.4129915
2.0649245 1.1994536 4.3963261
2.0513804 1.2133029 4.3627901
2.0480924 1.2373552 4.3230271
2.0204351 1.2524551 4.2931075
2.0067897 1.2769105 4.2747731
1.9975531 1.2684172 4.2479763
1.9559846 1.306227 4.2188892
1.9801271 1.3095191 4.1881375
1.974039 1.3289369 4.1597691
1.9340625 1.342788 4.0986772
1.9356357 1.3626618 4.1124625
1.9202753 1.3543198 4.0654764
1.9129975 1.3728192 4.0365157
1.9021698 1.3926166 4.0090389
1.8925653 1.394648 3.9970894
1.8552867 1.3986778 3.9549389
1.8625295 1.4296474 3.9488823
1.8533399 1.4471343 3.9216549
1.8094125 1.4513897 3.8740852
1.8210766 1.450227 3.8476613
1.8221722 1.4630834 3.8500504
1.7996343 1.4858518 3.8256872
1.7743108 1.5027221 3.7933481
1.7777641 1.4965398 3.7639976
1.7734544 1.5315316 3.7559378
1.7516702 1.5447952 3.724992
1.7374836 1.5539103 3.6984494
1.7325411 1.5493039 3.6768112
1.7294086 1.5609558 3.6516805
1.5730113 -0.58276743 3.3344414
1.5655869 -0.55230433 3.3065381
1.5548555 -0.52757591 3.2881925
1.550683 -0.52050996 3.2547925
1.5332735 -0.49414733 3.2686553
1.5370026 -0.48336047 3.2509828
1.54764 -0.46995962 3.2564015
1.5552698 -0.43222722 3.2563775
1.5419317 -0.43793505 3.2679257
1.5399193 -0.41659704 3.2624898
1.5542905 -0.37922844 3.2815545
1.5626303 -0.35309646 3.2831044
1.5376825 -0.34526205 3.2934024
1.540682 -0.34510371 3.2791641
1.5663979 -0.32670406 3.2946529
1.5647613 -0.32175693 3.3217893
1.5862598 -0.27544099 3.3492248
1.5914775 -0.28962347 3.394882
2.3490987 0.9300217 4.9723411
2.3279951 0.96236169 4.9308372
2.3275182 0.96489859 4.8894782
2.3095269 0.97793752 4.8522096
2.2801461 0.97819638 4.8304172
2.27758 1.014318 4.7850013
2.240679 1.0309635 4.7312799
2.2141559 1.0427861 4.7170081
2.2254767 1.0792319 4.6407952
2.1975813 1.0909231 4.6342649
2.1862967 1.1086088 4.5956588
2.1676633 1.1271006 4.5650554
2.1407082 1.1416327 4.5338731
2.131047 1.1506549 4.4989738
2.0988688 1.164735 4.4817963
2.0917792 1.1696939 4.4353619
2.0831873 1.1964976 4.3842292
2.0681872 1.2191951 4.3596654
2.0461118 1.2128345 4.3571372
2.0399127 1.2409781 4.3020377
2.025965 1.2567869 4.2745214
2.0282576 1.268961 4.2535419
1.9807491 1.2794286 4.2105851
1.9775393 1.3029128 4.2022014
1.9460759 1.3277087 4.1583471
1.9508855 1.3349057 4.1514831
1.9588712 1.3380643 4.1103673
1.9161546 1.3674955 4.0704985
1.9099671 1.3910819 4.0592542
1.9028268 1.3799695 4.0313134
1.8969221 1.3970159 3.9862607
1.8686243 1.4106855 3.9698849
1.8955766 1.4257369 3.9482684
1.841108 1.429484 3.9197233
1.8316659 1.448226 3.9073701
1.8199478 1.4488496 3.8773091
1.8245957 1.4572061 3.8514869
1.8076756 1.4636159 3.810956
1.8034286 1.4839574 3.8023982
1.7773721 1.5039746 3.7657685
1.7854874 1.5101581 3.7653918
1.7720196 1.540305 3.740952
1.7489307 1.5366625 3.718492
1.7517985 1.5331019 3.6744342
1.7504506 1.552572 3.6649444
1.5915738 -0.59883708 3.3604949
1.5698404 -0.55091965 3.3081756
1.5711948 -0.54866093 3.2932944
1.5536723 -0.53770453 3.3062875
1.548456 -0.51075059 3.2687142
1.5477005 -0.47958034 3.2612555
1.5569496 -0.44964147 3.2541764
1.5407305 -0.4604328 3.2620161
1.5380818 -0.42331842 3.2521679
1.5472839 -0.41585913 3.2588117
1.5490969 -0.39700663 3.2802484
1.5504875 -0.38729036 3.2806942
1.5520763 -0.35974392 3.2730227
1.5578387 -0.33325058 3.2883968
1.5741529 -0.33128908 3.3010156
1.5878714 -0.30743724 3.3281288
1.5939993 -0.30805159 3.3435729
1.5885893 -0.27577057 3.3881626
2.3679764 0.9361549 4.9832039
2.3460686 0.9229598 4.9342184
2.3587375 0.97770572 4.9031329
2.3063605 0.98027122 4.8820553
2.2803023 1.0063262 4.8070369
2.2853308 1.01967 4.808394
2.2489655 1.0287544 4.7692566
2.2335923 1.0527554 4.7202888
2.2235253 1.0470684 4.6915379
2.2029874 1.0882025 4.6430545
2.2107229 1.1041253 4.6055908
2.1616139 1.1132547 4.5785966
2.1579635 1.1274186 4.526175
2.1389623 1.1501981 4.5075541
2.1452787 1.18218 4.476994
2.1351123 1.1860789 4.4317303
2.1114209 1.194466 4.4038472
2.0943716 1.1956122 4.3833017
2.0887897 1.2272965 4.3600779
2.0422928 1.2374582 4.3065696
2.0415542 1.2462331 4.2872038
2.0357814 1.2783011 4.2472978
2.0142996 1.2809589 4.2175059
2.0023475 1.2896737 4.2005291
1.9880766 1.3199074 4.1538515
1.979422 1.3385688 4.1495333
1.9430382 1.3532888 4.1277928
1.9508528 1.3488917 4.0920191
1.9227502 1.359672 4.0497122
1.9103583 1.3832012 4.0399442
1.913906 1.4045961 4.0036449
1.8883106 1.4054023 3.9651985
1.8767394 1.4237741 3.9634581
1.8635741 1.4219583 3.9354236
1.8522269 1.4314091 3.9117417
1.8223879 1.4555813 3.8802187
1.8373013 1.4812968 3.8506374
1.8324187 1.4714186 3.8434186
1.8049895 1.4982618 3.8026893
1.804968 1.4921405 3.7810171
1.7747419 1.4842856 3.7648427
1.7990885 1.5204691 3.7471414
1.7837325 1.5412815 3.727124
1.7684162 1.56575 3.7057407
1.7338941 1.5451521 3.6678619
1.7532876 1.5745337 3.6654484
1.5608879 -0.57112241 3.3183577
1.5775369 -0.532471 3.2960143
1.5541565 -0.52544117 3.283946
1.5619826 -0.50509298 3.2590563
1.5770983 -0.49159688 3.2452085
1.5422394 -0.47130954 3.2859101
1.5566558 -0.46915597 3.2484171
1.5583572 -0.43553293 3.2695251
1.5442858 -0.40667364 3.2634258
1.5560387 -0.39999157 3.2650044
1.5392046 -0.38151011 3.2776453
1.5553499 -0.37140623 3.2690923
1.555962 -0.35833356 3.2940798
1.5823225 -0.33973882 3.291611
1.5758444 -0.32552236 3.3233714
1.5911562 -0.27793574 3.3635118
1.5870111 -0.28498331 3.360539
2.3766351 0.9232142 4.9981709
2.3707933 0.93368918 4.9435906
2.3454416 0.95475304 4.9243641
2.3258104 0.96777755 4.8947506
2.3038898 1.0072757 4.8328319
2.296973 0.99987572 4.798871
2.2712774 1.0208299 4.7745709
2.2619469 1.0386086 4.7392058
2.241358 1.05362 4.6922913
2.2301686 1.0663835 4.6504054
2.2080021 1.1074742 4.599072
2.1880593 1.0975337 4.5850382
2.1713743 1.131248 4.5361848
2.1536047 1.1419775 4.5290618
2.1453185 1.1631199 4.4887652
2.133374 1.167851 4.4639421
2.1039953 1.2073288 4.4327707
2.1118643 1.2108787 4.3857322
2.062695 1.2174476 4.3598886
2.0672822 1.2286785 4.3233533
2.0426743 1.2326676 4.2920542
2.032506 1.303347 4.2648354
2.0213053 1.2754307 4.2397943
2.0113862 1.2931228 4.1951513
2.0015676 1.299607 4.1774483
1.9785192 1.3084625 4.1721768
1.9784697 1.347919 4.1178565
1.9571453 1.3578976 4.087575
1.9385924 1.3449847 4.0747185
1.9442674 1.3883671 4.0379877
1.9257674 1.39692 4.0327845
1.9089391 1.386945 3.9994276
1.8789464 1.4014781 3.9689023
1.8955848 1.4240109 3.9418831
1.8735646 1.4392034 3.9132197
1.8477328 1.4560173 3.8687298
1.844188 1.4420588 3.8730416
1.8534384 1.4762113 3.8465199
1.8110007 1.4707263 3.8185039
1.8164346 1.4867784 3.8028481
1.7828125 1.5146328 3.7611055
1.7740195 1.5356253 3.756304
1.7577478 1.5351583 3.7244217
1.7671779 1.5616169 3.698209
1.7420566 1.5490168 3.6773348
1.7528867 1.5646827 3.6567316
1.6079788 -0.55904216 3.345118
1.5722075 -0.55321878 3.3165054
1.5664526 -0.53950959 3.3009245
1.556488 -0.49786666 3.2897253
1.5610542 -0.50283158 3.2696939
1.583315 -0.48457882 3.2624168
1.5767894 -0.46042645 3.2544386
1.5575895 -0.44750029 3.2621789
1.551095 -0.42379701 3.2673922
1.5638872 -0.39872408 3.2441003
1.5636146 -0.39515686 3.2822144
1.5720005 -0.36689913 3.2769506
1.5790648 -0.35327193 3.2711842
1.5787377 -0.34468672 3.2775021
1.573253 -0.31476521 3.3147521
1.5895356 -0.31634074 3.3153937
1.6037457 -0.29832894 3.3479085
1.6285459 -0.28712118 3.370955
2.3814852 0.93889129 4.9755611
2.3751724 0.95338917 4.9279103
2.3384466 0.95274556 4.8706107
2.3272614 0.98396873 4.8504348
2.2946384 1.0044903 4.8018646
2.2907193 1.0167212 4.7851329
2.2628403 1.0534132 4.7364688
2.2519233 1.0594404 4.68855
2.2449791 1.0809104 4.6579795
2.2177663 1.0931306 4.6411757
2.1976898 1.1085669 4.604341
2.1583204 1.1291429 4.5720935
2.1483324 1.1423935 4.5410595
2.156919 1.1550584 4.5003242
2.1208794 1.1740342 4.464911
2.1164372 1.2011638 4.4286275
2.111989 1.2253157 4.3952951
2.0796318 1.2051424 4.3761692
2.0876472 1.2299708 4.3312621
2.0692582 1.261685 4.3001375
2.0445101 1.2736509 4.2799621
2.0319235 1.2750813 4.2629089
2.0313272 1.2898891 4.210062
2.0083902 1.3102422 4.1907482
2.0017047 1.3222535 4.1556587
1.9721845 1.3235729 4.1502271
1.9871886 1.3605592 4.1364498
1.9694581 1.3552942 4.0886402
1.9411343 1.3803174 4.0515156
1.9378879 1.3860223 4.0187092
1.9094859 1.3964193 4.0013623
1.8991456 1.4128721 3.9666312
1.8821146 1.4189222 3.9509358
1.8762736 1.42672 3.9220769
1.8670474 1.4304806 3.9083941
1.8587989 1.4570318 3.8666325
1.8470709 1.4694512 3.8533723
1.8373965 1.4671808 3.8267958
1.8129342 1.4908305 3.7901018
1.8197591 1.4990377 3.7860541
1.805359 1.4967382 3.7606626
1.7819295 1.5479395 3.7129612
1.7695569 1.5354964 3.7186854
1.7648612 1.5327874 3.6798346
1.7584878 1.5737271 3.6691518
1.6122639 -0.57839662 3.3636849
1.6055796 -0.56084651 3.3173552
1.5919597 -0.56552374 3.2852592
1.5727024 -0.53911906 3.2529328
1.5782251 -0.51457983 3.2639866
1.561627 -0.47398081 3.2544615
1.5762469 -0.46478269 3.2612572
1.5670526 -0.47099307 3.2664506
1.5611299 -0.42347762 3.2718415
1.5680025 -0.41702798 3.2515976
1.5536846 -0.39876452 3.2669261
1.572631 -0.37207741 3.2517476
1.5829974 -0.35045147 3.2727759
1.5866305 -0.35556486 3.2901957
1.588799 -0.31314176 3.2931514
1.5990806 -0.30889708 3.3310483
1.6133685 -0.30137438 3.3310425
1.6350125 -0.27058175 3.3869772
2.3943024 0.91956359 4.9709191
2.3745749 0.92549616 4.9322066
2.3557909 0.95704138 4.9102879
2.3417509 0.96159846 4.8510137
2.3140812 0.99326009 4.8201485
2.313499 1.01741 4.787746
2.2870708 1.0266182 4.7492452
2.2765203 1.0378137 4.7117448
2.2432482 1.0579771 4.6901746
2.231441 1.0875717 4.6404276
2.2222476 1.0995433 4.6228309
2.2042694 1.1127015 4.5558276
2.1750236 1.143701 4.5331941
2.1663942 1.1576358 4.5053692
2.1473219 1.1602085 4.4636035
2.1654162 1.1815953 4.45224
2.1239653 1.2055719 4.4250245
2.125133 1.1907933 4.3729362
2.0899677 1.2214651 4.3461456
2.0805168 1.2571211 4.32093
2.0584204 1.2604237 4.2858481
2.0589523 1.2633971 4.2730684
2.0387907 1.3017694 4.2098989
1.9990383 1.302971 4.2095346
2.0120928 1.3155224 4.1710267
2.0101228 1.3070217 4.1267538
1.9613568 1.3323722 4.1063514
1.9527323 1.3490525 4.0838408
1.9457881 1.3898269 4.0659361
1.954474 1.3734826 4.0232949
1.9361655 1.394592 4.0218554
1.922881 1.4136316 3.9762912
1.902158 1.4242433 3.9759517
1.9025359 1.4295568 3.9322901
1.8849512 1.419276 3.9020197
1.8589728 1.4648353 3.8846076
1.8514436 1.4776138 3.8493586
1.8462065 1.4605381 3.8393478
1.8174461 1.4917504 3.7988923
1.8181833 1.5043433 3.7866588
1.8158756 1.501055 3.7783716
1.8205682 1.5163167 3.7383521
1.7810421 1.5268223 3.7154291
1.7668939 1.5483885 3.687891
1.7673149 1.5514638 3.6845634
1.7557371 1.5489187 3.6358967
1.6022732 -0.5878104 3.3381407
1.5834532 -0.54466814 3.2873752
1.5898763 -0.52867317 3.2861874
1.5774814 -0.51242602 3.2807581
1.584247 -0.49290448 3.2501106
1.5704864 -0.46739367 3.2560031
1.5714223 -0.45205998 3.2704098
1.5765802 -0.43985096 3.2542288
1.5761951 -0.42713863 3.2510886
1.5637033 -0.40639061 3.2448072
1.5832562 -0.39261809 3.2593312
1.5709102 -0.35996348 3.2495291
1.5878441 -0.33542094 3.283766
1.5783545 -0.33852741 3.29547
1.6086175 -0.32470235 3.3094094
1.5888408 -0.30483294 3.3218436
1.6275815 -0.28928718 3.3561938
2.3927741 0.91201431 4.9828076
2.3757179 0.93672949 4.9564734
2.3871231 0.95908672 4.9093451
2.3447022 0.98439699 4.8750906
2.3353722 0.97415966 4.8309155
2.3284504 1.0046388 4.7904649
2.2920363 1.0304818 4.7679281
2.2866387 1.0434742 4.7283335
2.2684324 1.046788 4.6894088
2.2316637 1.0827585 4.6773152
2.2310007 1.0980785 4.6018047
2.2156 1.1318955 4.5906868
2.2109649 1.1047391 4.5402007
2.2125492 1.1436023 4.5290909
2.1704218 1.1520637 4.4851551
2.1295922 1.1715708 4.4616022
2.1351368 1.2037914 4.4239516
2.1260183 1.2013527 4.3817997
2.0940444 1.2293917 4.3592515
2.0969117 1.2380698 4.3265243
2.0832856 1.2613627 4.3173242
2.0569601 1.2640268 4.279438
2.0421708 1.2869645 4.2301083
2.0392535 1.3016016 4.205647
2.0194006 1.302773 4.1836367
2.0078475 1.3100209 4.1494832
1.9895189 1.321575 4.1249561
1.9763865 1.3385684 4.09797
1.9620138 1.3783736 4.0619612
1.9617153 1.3780632 4.0559435
1.9276741 1.3677975 4.017005
1.9196813 1.3978915 3.9870648
1.902222 1.4212061 3.9613168
1.9145575 1.4078161 3.9290783
1.8804216 1.4471303 3.9347384
1.8521624 1.4462154 3.8908567
1.8717611 1.475317 3.8789561
1.8542072 1.4618899 3.841131
1.8339754 1.4885844 3.8124986
1.8261285 1.4911898 3.7821596
1.8159896 1.5120357 3.7663946
1.8013012 1.512357 3.7432885
1.8084801 1.5324154 3.7232146
1.7787355 1.5302156 3.7035363
1.7788632 1.5510106 3.6922612
1.7651886 1.5645294 3.6661308
1.6128184 -0.56876862 3.3481014
1.6059135 -0.56649143 3.3001046
1.6078686 -0.54309314 3.2883997
1.5915143 -0.51803058 3.2688246
1.5795256 -0.51187003 3.2647893
1.6015784 -0.4785507 3.2567518
1.5623785 -0.46770653 3.2467644
1.5853609 -0.43804628 3.2515321
1.5500904 -0.40775183 3.2414756
1.5803934 -0.40550554 3.2382138
1.5680434 -0.39170066 3.2826715
1.5861731 -0.37338063 3.2871292
1.5977285 -0.34337014 3.2714605
1.6014726 -0.34243792 3.2914355
1.6020584 -0.33084255 3.3021672
1.6048321 -0.31380379 3.3046377
1.6323453 -0.28578019 3.3419206
1.6450318 -0.2814981 3.3965712
2.407737 0.91874933 4.9618464
2.3884068 0.9552086 4.9401712
2.3593588 0.96019107 4.9016685
2.3420238 0.98980308 4.8430719
2.3359179 0.9978413 4.8296957
2.3101034 1.0164093 4.7760859
2.3002501 1.0379126 4.7439084
2.2791369 1.043074 4.7117548
2.260298 1.0647411 4.6811543
2.2355876 1.0870472 4.6409531
2.238272 1.1117947 4.5881958
2.2114069 1.1323874 4.577054
2.2009909 1.1398534 4.528481
2.183028 1.1497623 4.4928718
2.1530361 1.1771719 4.4593229
2.1465445 1.1887587 4.4419341
2.1146073 1.1917555 4.424355
2.1075728 1.2208241 4.3750134
2.0921898 1.2235759 4.3492465
2.0903571 1.2371337 4.2998915
2.0823929 1.2489142 4.2854438
2.0570719 1.2740183 4.24685
2.0423622 1.2964464 4.2245655
2.0101435 1.3133513 4.1789403
2.0211711 1.3175197 4.15591
2.0002789 1.3306353 4.1167579
1.9903618 1.3335935 4.0991693
1.9650943 1.3706992 4.0805254
1.9604628 1.377465 4.0535479
1.9422212 1.3931987 4.0228105
1.9369637 1.3790219 3.9921029
1.9291394 1.4208065 3.966104
1.9037132 1.4072986 3.9486175
1.8959779 1.4406029 3.9282954
1.8777994 1.4509376 3.8934245
1.8791461 1.4481887 3.863101
1.8607645 1.4514306 3.8450918
1.8443474 1.4806286 3.8494334
1.8460194 1.4946717 3.8124652
1.828513 1.5007311 3.7694979
1.816281 1.5150429 3.7488739
1.79415 1.5306444 3.7408142
1.7865753 1.5433526 3.7146206
1.7874327 1.5572741 3.6749916
1.7768008 1.5711966 3.6535983
1.6356 -0.59305429 3.3514421
1.6018784 -0.55978489 3.3196537
1.6146929 -0.54790598 3.2986748
1.5930331 -0.5352937 3.2704723
1.5807844 -0.50355268 3.2576926
1.5963073 -0.48727548 3.2575707
1.5853059 -0.46223083 3.239543
1.5850966 -0.41274834 3.2672279
1.6052799 -0.44216266 3.2614119
1.5988089 -0.40814045 3.2469926
1.5995576 -0.40493295 3.2626808
1.5863489 -0.38358572 3.2710686
1.5968007 -0.38365987 3.2912614
1.6061779 -0.35672924 3.2824051
1.5986706 -0.32511759 3.2947319
1.6278771 -0.32134464 3.3268161
1.6181691 -0.3007738 3.3368716
1.6290859 -0.28611517 3.3664696
2.4373994 0.92110473 4.9782338
2.4034457 0.9506734 4.9449673
2.3874397 0.96232247 4.8892884
2.3632295 0.98305798 4.8518205
2.3247259 1.0063936 4.8261528
2.339381 1.0088013 4.7982302
2.3217292 1.031674 4.7683296
2.2926188 1.0491849 4.7165346
2.2739263 1.0490865 4.6570315
2.2587836 1.0841862 4.6493464
2.2332118 1.1113985 4.5844493
2.2002258 1.1070471 4.5722837
2.2129896 1.135185 4.5449758
2.1882102 1.1443762 4.508172
2.1721146 1.1601881 4.4778886
2.1754158 1.1910059 4.4485898
2.1615682 1.1834801 4.4323273
2.1388817 1.214694 4.37925
2.1089196 1.2255567 4.3527799
2.0864816 1.2452388 4.3234854
2.0988653 1.2634939 4.2793579
2.0778899 1.2556604 4.254324
2.0575206 1.2815758 4.2400241
2.0336771 1.2946253 4.2090726
2.0517237 1.3152912 4.1611323
2.0067196 1.3191341 4.1576524
1.9999212 1.3447943 4.1132126
1.9894493 1.3432389 4.0853791
1.9788409 1.3755611 4.0709348
1.9652455 1.3801181 4.0363417
1.9554191 1.3946656 3.9974306
1.9226266 1.421428 3.9856913
1.9142838 1.394647 3.9537563
1.904043 1.4418863 3.9340463
1.9208585 1.4508106 3.8886943
1.8813623 1.4387535 3.866329
1.8793001 1.4704571 3.8461196
1.8461441 1.4897212 3.8211315
1.8578405 1.4999665 3.8132043
1.8444244 1.4974185 3.8000259
1.8258163 1.5231253 3.7561183
1.810562 1.5204639 3.743032
1.7957547 1.5408571 3.7234788
1.7796584 1.5461891 3.7186313
1.7730712 1.5582008 3.6748364
1.7691846 1.5664525 3.6353357
1.6226065 -0.56996948 3.3051832
1.6100926 -0.55625987 3.3190422
1.6123922 -0.52210039 3.2846177
1.5967853 -0.50455081 3.2704685
1.5897352 -0.49484429 3.2628965
1.5943871 -0.49026757 3.2585208
1.5910132 -0.45022184 3.2570269
1.5917398 -0.44729286 3.2615893
1.5864452 -0.41597039 3.2579055
1.5953268 -0.4030683 3.249069
1.5862353 -0.38643849 3.2722793
1.6007075 -0.3863025 3.2583296
1.608456 -0.36376283 3.2795897
1.6055831 -0.33947381 3.2941306
1.5916904 -0.31284723 3.3142188
1.6618823 -0.29339856 3.3350565
1.6352121 -0.29840401 3.3549218
2.442734 0.91411704 5.0045261
2.3978901 0.92792428 4.9380546
2.3862488 0.95430094 4.9075866
2.3765631 0.95118797 4.8844838
2.3542578 1.0004382 4.8320513
2.3561962 1.0060954 4.7990217
2.3296373 1.0174632 4.7679067
2.3259537 1.0509681 4.7211041
2.2920878 1.0625489 4.6955457
2.2668271 1.0880115 4.6520858
2.2495263 1.0950928 4.607079
2.2541592 1.1081915 4.5841413
2.2246404 1.1259347 4.5465093
2.1858001 1.1591105 4.5169897
2.1841049 1.1598141 4.4834175
2.1826854 1.1657422 4.4389896
2.1675901 1.2054343 4.4371934
2.1506181 1.2207147 4.3819189
2.1239455 1.2280961 4.3653135
2.0946624 1.24858 4.3213043
