# .PCD v0.7 - Point Cloud Data file format
VERSION 0.7
FIELDS x y z
SIZE 4 4 4
TYPE F F F
COUNT 1 1 1
WIDTH 1504
HEIGHT 1
VIEWPOINT 0 0 0 1 0 0 0
POINTS 1504
DATA ascii
-1.4702007 1.4393544 3.9639635
-1.4273139 1.43988 3.9307706
-1.3940408 1.4251281 3.9224534
-1.4326587 1.4543223 3.8769758
-1.3988844 1.4252059 3.9088118
-1.3566382 1.4700627 3.8440785
-1.3842608 1.5013508 3.7921674
-1.3997709 1.4944501 3.7600546
-1.3582678 1.4902714 3.7708733
-1.3517357 1.4922338 3.7251642
-1.3287081 1.5167029 3.7247927
-1.3566382 1.5648617 3.7281663
-1.2924422 1.5625653 3.6777844
-1.3469906 1.5524052 3.6681995
-1.8304937 0.94221067 4.9986486
-1.8131413 0.92673558 4.9421091
-1.78012 0.96517313 4.908977
-1.7800761 0.97460818 4.8607588
-1.7369564 0.99401379 4.8247714
-1.7282215 0.98741698 4.7948523
-1.6727455 1.014842 4.7518253
-1.6726174 1.068189 4.7273202
-1.7000571 1.0539219 4.6938739
-1.653981 1.1059619 4.6547699
-1.6660925 1.092001 4.6165447
-1.6709031 1.1432291 4.5837708
-1.6212947 1.1180006 4.5314293
-1.6113513 1.1188769 4.5110765
-1.5815382 1.1502559 4.4877305
-1.5896266 1.1945015 4.4401155
-1.61347 1.1768209 4.3961987
-1.6345563 1.1996677 4.3692074
-1.5623062 1.2266122 4.3500099
-1.5647229 1.2207701 4.3226037
-1.5790058 1.2717539 4.2948098
-1.5283962 1.2718396 4.2647414
-1.5307313 1.2772158 4.2213426
-1.5378778 1.2991097 4.1888518
-1.5338241 1.297109 4.1740313
-1.4996272 1.338449 4.1597548
-1.4681093 1.3260154 4.1200237
-1.4917102 1.3680915 4.0700455
-1.4645067 1.3627403 4.0470271
-1.4165938 1.4329408 4.0539665
-1.4525583 1.3912592 4.0130939
-1.4249464 1.3724266 3.9948742
-1.4205377 1.4085948 3.9330804
-1.3907372 1.3826154 3.936034
-1.4180799 1.4455633 3.9078968
-1.418336 1.4411279 3.8868856
-1.3822865 1.4681675 3.8584943
-1.3912504 1.4870721 3.841301
-1.3818097 1.503196 3.7800217
-1.3504492 1.5080596 3.79319
-1.3875881 1.4820191 3.7765775
-1.3796828 1.5088114 3.7524137
-1.3028268 1.5432242 3.6866901
-1.3452318 1.5489082 3.6867101
-1.3601691 1.5587744 3.6773944
-1.3173549 1.5787804 3.6575336
-1.7894431 0.91107666 4.9637299
-1.7558732 0.94840556 4.9336858
-1.7407563 0.93481195 4.8866177
-1.7267516 1.001757 4.8503056
-1.7196243 1.0141518 4.8143148
-1.7341383 1.0474397 4.7609253
-1.7333366 1.014248 4.7017999
-1.7046719 1.0413232 4.7021933
-1.6887571 1.0632088 4.6415334
-1.683282 1.096066 4.647646
-1.6330243 1.0694896 4.549839
-1.6197996 1.152094 4.5484791
-1.5969666 1.1004031 4.5004501
-1.6081599 1.1685756 4.4666724
-1.6095408 1.1777178 4.4724827
-1.5796392 1.2225688 4.4369226
-1.5722642 1.1934552 4.3807321
-1.5705107 1.205027 4.3770289
-1.5932161 1.2230171 4.3395352
-1.5352002 1.2049872 4.3119907
-1.5126857 1.2767382 4.2624106
-1.5219364 1.2787157 4.2663293
-1.4855247 1.2707549 4.2294836
-1.4959682 1.2905885 4.1800737
-1.5081377 1.3231504 4.1430073
-1.4831004 1.3277375 4.1531911
-1.4843247 1.3520378 4.090476
-1.4617413 1.3384652 4.084723
-1.4216212 1.3696629 4.0319648
-1.4595587 1.4089246 4.0007644
-1.430105 1.3860843 4.0406241
-1.3989252 1.4332629 3.9533896
-1.419103 1.425786 3.9207962
-1.3788365 1.4185053 3.9378381
-1.4153453 1.4307863 3.8823912
-1.3918554 1.4593855 3.8730221
-1.3886596 1.4721565 3.8613963
-1.3763771 1.5137691 3.8544157
-1.3936443 1.462437 3.8406563
-1.3424668 1.5066168 3.7600062
-1.3089422 1.459179 3.7607503
-1.3146161 1.4732887 3.7722857
-1.3298316 1.5017568 3.6947455
-1.3483974 1.589457 3.6751165
-1.2727216 1.548793 3.6653001
-1.7827456 0.94519424 5.0405092
-1.7579976 0.95376801 4.9614873
-1.7420019 0.9315995 4.9515843
-1.7347114 1.0062063 4.8611398
-1.7163092 1.0132788 4.8730807
-1.6941084 1.0168196 4.7883935
-1.719713 1.0248089 4.7535214
-1.6912124 1.0801491 4.696785
-1.6800696 1.0896895 4.700357
-1.6852549 1.1043098 4.6347518
-1.6425114 1.0920134 4.6245456
-1.6068028 1.1172347 4.5580473
-1.5984344 1.1157255 4.5337086
-1.606877 1.1698 4.4857993
-1.585837 1.1507703 4.4539189
-1.5840135 1.1685166 4.4555826
-1.5725188 1.2076707 4.4284015
-1.5742294 1.1807014 4.3830171
-1.5086277 1.2110997 4.3264189
-1.5470362 1.2407835 4.3298745
-1.4973817 1.2846582 4.2700396
-1.4664783 1.2551773 4.2539129
-1.4951231 1.294057 4.2778797
-1.5022218 1.3271885 4.199698
-1.5046598 1.2951245 4.156364
-1.483986 1.3231874 4.1419373
-1.4860467 1.3434519 4.1021981
-1.4742186 1.344209 4.1383133
-1.4598753 1.3465073 4.0829186
-1.4319589 1.3918852 4.067966
-1.4065608 1.3808455 4.0580649
-1.4212836 1.4143125 3.9788597
-1.4348528 1.4098042 3.951345
-1.4032375 1.4288754 3.937957
-1.3885846 1.4066724 3.9115722
-1.3451705 1.4717664 3.9192216
-1.3643954 1.4492029 3.8779659
-1.3824489 1.4852123 3.8801036
-1.3531522 1.4715594 3.8003387
-1.3509241 1.4981574 3.8090603
-1.3393354 1.4877728 3.7867768
-1.3312596 1.5362871 3.7166507
-1.3282636 1.5391492 3.733417
-1.2943661 1.5264492 3.6742165
-1.3024482 1.5636753 3.703793
-1.3135067 1.5575274 3.6519034
-1.7312967 0.92016941 5.0057154
-1.785614 0.93868709 4.9591861
-1.7075188 0.96116751 4.8947392
-1.7498354 0.97208977 4.8682466
-1.6950842 0.96655375 4.826056
-1.719909 1.0136826 4.7592859
-1.6838526 1.0206796 4.7457514
-1.6390183 1.0134101 4.6921382
-1.6465075 1.0572872 4.6889744
-1.6713471 1.0439188 4.6354203
-1.6694406 1.1324376 4.6183419
-1.6040995 1.0675962 4.5543637
-1.6202321 1.1456583 4.5006404
-1.6036112 1.1308386 4.5166001
-1.6271765 1.1868293 4.4624548
-1.5687069 1.1636536 4.4468975
-1.5987093 1.1934754 4.405551
-1.568485 1.2370551 4.4015236
-1.5115064 1.2357571 4.3558164
-1.5275558 1.2285324 4.3207345
-1.5138353 1.280019 4.2950015
-1.5099826 1.2657957 4.2578835
-1.4862366 1.2684164 4.2386155
-1.4986064 1.3307575 4.1739154
-1.4918804 1.3393264 4.1634011
-1.5028005 1.3309355 4.1341596
-1.4531335 1.3516091 4.147377
-1.4652039 1.3252922 4.0872269
-1.4769274 1.3759087 4.1038041
-1.4002801 1.3849784 4.0260229
-1.4305993 1.4030206 4.0111885
-1.4156671 1.4259742 4.0063481
-1.3700609 1.3522302 3.9928679
-1.4027337 1.4210788 3.9513111
-1.3974857 1.4411496 3.9019411
-1.3891801 1.4292996 3.896354
-1.3617436 1.4891834 3.8328993
-1.3401732 1.4717779 3.8756332
-1.3338467 1.486949 3.819505
-1.3462311 1.4770854 3.7683351
-1.3244663 1.5273815 3.7660241
-1.3465509 1.5279484 3.7443507
-1.2856197 1.5429523 3.6901641
-1.3272786 1.5672141 3.6750295
-1.3059942 1.5365835 3.6570997
-1.2501832 1.5469105 3.6615992
-1.7417555 0.95219046 4.9426312
-1.7461911 0.93358868 4.9305243
-1.7561463 0.95676589 4.8933487
-1.6735429 0.99839014 4.8584862
-1.7185354 1.0043907 4.8302698
-1.666931 1.0212545 4.7815399
-1.6995016 1.0679878 4.7385945
-1.6868562 1.0714732 4.7054081
-1.6457253 1.0638776 4.6798315
-1.6523064 1.0936035 4.6587214
-1.6123536 1.1040962 4.6194196
-1.5895236 1.151499 4.5608554
-1.5823121 1.1300209 4.5724721
-1.5623833 1.1880214 4.4944038
-1.5719986 1.1611984 4.448709
-1.5343471 1.2100452 4.3978515
-1.5576041 1.2183396 4.3912244
-1.5298935 1.2426636 4.3586068
-1.543838 1.2138003 4.3261075
-1.5264515 1.2445464 4.3230777
-1.4986358 1.2780187 4.2601662
-1.5091153 1.2847731 4.2254314
-1.510525 1.3138329 4.220459
-1.4805237 1.2913115 4.1761003
-1.4657507 1.3174978 4.144712
-1.4459296 1.3571756 4.1317558
-1.4481229 1.3448859 4.0955892
-1.4393743 1.3292763 4.0697751
-1.4344295 1.3664663 4.0305257
-1.4135611 1.4145952 4.0309548
-1.3997997 1.4175781 4.0194054
-1.4199927 1.4153703 3.9545081
-1.4151093 1.44437 3.9595354
-1.3876818 1.403289 3.9005523
-1.3536596 1.4281898 3.9176173
-1.3505224 1.4673418 3.8609025
-1.350862 1.5064567 3.8531349
-1.3444766 1.4908212 3.8639483
-1.3551782 1.4813482 3.7843845
-1.3322699 1.506772 3.8043373
-1.3250911 1.5191734 3.7610443
-1.316133 1.4894432 3.7250247
-1.3100179 1.5214477 3.7127478
-1.3045491 1.5294167 3.6897871
-1.2660968 1.5632193 3.6509609
-1.7399354 0.89636964 5.0010686
-1.7722472 0.93456984 4.9717245
-1.7161839 0.93725902 4.9284019
-1.699906 0.97936624 4.8785682
-1.6531711 1.0224103 4.831923
-1.6761687 0.99860245 4.7715054
-1.6728511 1.0415027 4.7723064
-1.6651274 1.0449531 4.7670403
-1.6423055 1.0902264 4.7009654
-1.6186759 1.0771395 4.6432338
-1.6065012 1.0955071 4.6203609
-1.6139892 1.1222918 4.5682435
-1.5841994 1.1321313 4.5118752
-1.5767751 1.0936791 4.497921
-1.5627968 1.1526538 4.5032701
-1.5184 1.154971 4.4558554
-1.5569282 1.2229171 4.4404202
-1.5131648 1.1900276 4.3887844
-1.5185783 1.2114745 4.3565569
-1.5090625 1.2298559 4.3303833
-1.5165137 1.2222722 4.2726989
-1.5350987 1.2888969 4.273334
-1.4530796 1.2912514 4.2488956
-1.456617 1.2987134 4.16289
-1.4741504 1.2894607 4.1600976
-1.5053569 1.3501844 4.1738424
-1.4700745 1.359972 4.1275401
-1.4447998 1.3458722 4.0840249
-1.4720201 1.3131901 4.0796127
-1.4481512 1.3596312 4.0120444
-1.4261545 1.3748457 4.0572391
-1.3879207 1.3867114 3.9711397
-1.4148753 1.3966694 3.9635341
-1.3796241 1.427987 3.9075527
-1.4242773 1.4538997 3.9331045
-1.3501036 1.4255334 3.9129989
-1.3524727 1.4769753 3.8947458
-1.3370683 1.4755923 3.8155334
-1.3656923 1.4940929 3.8670256
-1.3550392 1.5194829 3.7910957
-1.2963884 1.4876429 3.7898622
-1.3174999 1.542159 3.7587934
-1.3354616 1.5472891 3.7220643
-1.336796 1.5219903 3.6973298
-1.2650207 1.5542091 3.6910219
-1.2884909 1.5738052 3.6688352
-1.7125305 0.91207492 4.9608407
-1.7041686 0.89481783 4.9445262
-1.7116283 1.0166847 4.9008331
-1.6843625 1.0141627 4.8669147
-1.6881144 0.99296719 4.8241153
-1.6779063 1.0161117 4.8201447
-1.655353 1.0422636 4.7596135
-1.6528177 1.0579495 4.6817536
-1.6404864 1.0773661 4.6520882
-1.6332338 1.083807 4.647089
-1.6183196 1.1136153 4.6145077
-1.5791105 1.094725 4.5654221
-1.5861038 1.120904 4.5102944
-1.5765065 1.1301594 4.5053344
-1.582401 1.156103 4.4956784
-1.5599755 1.1790893 4.4459291
-1.543676 1.2242455 4.4198427
-1.5199146 1.1853869 4.4107151
-1.5288351 1.231747 4.3679514
-1.5124569 1.2487445 4.2961731
-1.5048505 1.2276586 4.2962708
-1.4678777 1.2455636 4.2917738
-1.4500871 1.3087511 4.1835818
-1.4694204 1.310528 4.2019014
-1.4774635 1.3250295 4.1770592
-1.4501506 1.3357726 4.1427073
-1.510205 1.3315228 4.1021566
-1.4410037 1.3658205 4.0930805
-1.4040827 1.3799498 4.0954032
-1.3802696 1.3853693 3.9942596
-1.4222744 1.3976971 3.993681
-1.3815522 1.4222831 3.9672318
-1.39809 1.3900003 3.9700475
-1.3808228 1.4178747 3.9319177
-1.3395432 1.4622179 3.9035313
-1.3796525 1.4435858 3.8878703
-1.361078 1.4248419 3.8449836
-1.3515493 1.5013808 3.8755584
-1.322433 1.5036544 3.8375669
-1.3568678 1.5002323 3.7992785
-1.3032665 1.511819 3.7494068
-1.3692908 1.5002806 3.7188089
-1.2761598 1.5227885 3.7058542
-1.261088 1.5287828 3.71612
-1.2980793 1.5628719 3.6914241
-1.2404896 1.543916 3.609344
-1.7091306 0.95695257 4.9518957
-1.7069821 0.9562887 4.9000793
-1.6970547 1.0207481 4.8952727
-1.6931136 0.98500526 4.8693399
-1.6811323 1.0121965 4.7758889
-1.6590891 1.0357618 4.7467813
-1.6374989 1.0507406 4.738389
-1.6635801 1.0378852 4.7244563
-1.6305107 1.0663539 4.6926093
-1.5652175 1.0596048 4.6236939
-1.5962735 1.1141481 4.5991831
-1.6068228 1.0895864 4.5803561
-1.5835036 1.136786 4.5029602
-1.6099283 1.184345 4.4840188
-1.5630983 1.1796979 4.4789929
-1.5441405 1.1772497 4.418859
-1.526844 1.2234335 4.3805418
-1.5042971 1.2269298 4.3995824
-1.5155745 1.2689431 4.3636522
-1.5435255 1.2489537 4.3335528
-1.5137537 1.2924088 4.2987266
-1.4739631 1.272944 4.2745309
-1.4661787 1.2831913 4.2318416
-1.479992 1.2725028 4.1917686
-1.4436256 1.3217496 4.164
-1.434183 1.3278186 4.1102614
-1.410524 1.3626353 4.0873914
-1.4294443 1.3658713 4.0799346
-1.3790439 1.3746473 4.0346532
-1.4128418 1.3636943 4.0597382
-1.408834 1.3527627 4.0220275
-1.4217403 1.3933947 3.9604425
-1.3911407 1.4025381 3.9438088
-1.3538009 1.4372361 3.9216952
-1.3119967 1.4380628 3.9157088
-1.3624531 1.4568181 3.8858943
-1.3719807 1.458228 3.8566833
-1.3222033 1.4736702 3.7945108
-1.3576465 1.497079 3.8241184
-1.2866864 1.5287399 3.7879133
-1.3059351 1.5036392 3.763438
-1.2752521 1.5317893 3.781548
-1.292689 1.5320052 3.7097025
-1.270638 1.5438334 3.7279587
-1.2770445 1.5468385 3.6417086
-1.7210413 0.89967394 4.9968224
-1.700564 0.91247505 4.9517174
-1.701339 0.9301824 4.9121561
-1.6794844 0.94537008 4.8687358
-1.6878356 1.0148264 4.8114033
-1.6563661 1.0075437 4.7531204
-1.6474454 1.0363588 4.7445107
-1.6240742 1.0233679 4.7320867
-1.6235747 1.0785614 4.7196598
-1.5893433 1.0706196 4.6473961
-1.6162099 1.0746965 4.6027451
-1.6246266 1.1055657 4.5712328
-1.5521076 1.1083724 4.5437207
-1.5898755 1.1509112 4.5031819
-1.571561 1.1787663 4.479754
-1.556533 1.1611323 4.4518876
-1.5230461 1.1880877 4.4407539
-1.4653182 1.2249336 4.393033
-1.5259063 1.2104474 4.3615761
-1.4651166 1.2367682 4.3197093
-1.4687108 1.2307305 4.2785702
-1.4943808 1.276126 4.2312546
-1.4830225 1.2468011 4.2706733
-1.4351506 1.3211343 4.2388434
-1.4605343 1.271031 4.1546793
-1.4403731 1.2998253 4.1603694
-1.4414871 1.3346015 4.1396041
-1.4119965 1.3581986 4.0649743
-1.4100307 1.3490585 4.0544233
-1.4038943 1.3781534 4.0526514
-1.3852441 1.3918916 4.0508671
-1.3868634 1.3933346 3.9977663
-1.364102 1.4048295 3.9584446
-1.3573983 1.4152522 3.9595311
-1.3315614 1.4923904 3.9047856
-1.324899 1.4023091 3.8989906
-1.3352213 1.4739349 3.8758841
-1.3207483 1.4512728 3.8150403
-1.3236474 1.4877793 3.8239763
-1.300923 1.5239434 3.8112214
-1.3388474 1.5380464 3.786885
-1.3119826 1.497136 3.7406101
-1.2444795 1.5617149 3.746223
-1.2993236 1.5292184 3.6909904
-1.2372555 1.5573541 3.6910441
-1.249714 1.5375051 3.6711121
-1.7169303 0.92235863 5.0096803
-1.6898179 0.93463963 4.9481196
-1.6904604 0.96833771 4.9248881
-1.6770346 0.98646498 4.8782949
-1.6738849 1.0033957 4.8153124
-1.6651613 0.97341293 4.784945
-1.6271578 1.0220881 4.7696161
-1.6033357 1.0442322 4.766192
-1.6248503 1.0791447 4.6596713
-1.5579937 1.0902466 4.6598153
-1.5799704 1.1208422 4.6015348
-1.5658762 1.1060815 4.6270862
-1.5834925 1.1218227 4.5314145
-1.5281755 1.1397257 4.5228968
-1.5239966 1.1699166 4.4854484
-1.5311296 1.2021757 4.4433599
-1.4730759 1.1879636 4.4283791
-1.4982954 1.2145158 4.3431444
-1.4757687 1.2507329 4.3497663
-1.4865458 1.2727648 4.2961521
-1.4966273 1.3155608 4.2567225
-1.4849327 1.2330003 4.2350039
-1.4207287 1.3137301 4.2284083
-1.448608 1.3090678 4.1933904
-1.4396981 1.2908705 4.1823144
-1.4136966 1.3492371 4.1347108
-1.4160019 1.357358 4.1412172
-1.3625381 1.3840972 4.0999379
-1.3846786 1.3640782 4.0854535
-1.3866931 1.3681684 4.0275526
-1.4041092 1.3931445 3.9740183
-1.3843271 1.3634598 3.9565439
-1.3760285 1.3997954 3.9589701
-1.3374891 1.4313982 3.9394703
-1.3481348 1.4117647 3.9025719
-1.3674965 1.4901773 3.8873343
-1.3308127 1.4548628 3.8639035
-1.3304129 1.4717147 3.8377473
-1.2835381 1.5084254 3.8086147
-1.3017043 1.4671683 3.7748947
-1.2957426 1.5231937 3.7379801
-1.26502 1.5109892 3.755435
-1.2764183 1.5609163 3.7172482
-1.2783129 1.5401894 3.710681
-1.2439579 1.5308137 3.6576769
-1.2483326 1.5245075 3.6292319
-1.7030069 0.93772882 4.9707241
-1.6743304 0.96219057 4.9014421
-1.6811912 0.97765577 4.8868008
-1.6518975 1.0293226 4.8408837
-1.6555647 0.98407131 4.8395076
-1.6652677 1.0213711 4.7868538
-1.6367462 1.0422909 4.7361188
-1.5882562 1.0592215 4.7302094
-1.5993155 1.0469856 4.6813293
-1.5958438 1.1343442 4.6311541
-1.5781163 1.1003647 4.6240497
-1.5557833 1.1578982 4.5599589
-1.5338879 1.1522766 4.5460987
-1.5388638 1.1442821 4.4934893
-1.529054 1.1652629 4.4565334
-1.5093511 1.1758699 4.4061766
-1.5022672 1.2128285 4.4050012
-1.5037565 1.2116909 4.3816657
-1.4982979 1.2609662 4.3237429
-1.468453 1.2515001 4.3441882
-1.4469932 1.2539036 4.2713447
-1.4780442 1.268185 4.2774816
-1.4515086 1.3013648 4.2407041
-1.4292029 1.2784164 4.1852694
-1.432463 1.312871 4.1871204
-1.4182867 1.3330038 4.1727643
-1.4007666 1.3599559 4.0995812
-1.3776554 1.3098141 4.0682926
-1.3968661 1.3997583 4.0237823
-1.3393905 1.3825371 4.072197
-1.3616618 1.3999727 4.0056849
-1.3339229 1.4409639 3.949465
-1.3578434 1.4407353 3.940726
-1.3095728 1.4377496 3.9060521
-1.3463103 1.4789715 3.8719983
-1.32309 1.4371692 3.9155872
-1.3341389 1.45647 3.8825676
-1.3215301 1.4948844 3.8036897
-1.3040221 1.5202277 3.7910237
-1.2769361 1.4876373 3.7863483
-1.3072883 1.5165498 3.7501168
-1.2766182 1.502556 3.7449226
-1.2811542 1.5177612 3.705642
-1.2693287 1.5849596 3.6907563
-1.299619 1.5647757 3.6332185
-1.700799 0.8870976 4.9912853
-1.6844791 0.940476 4.9552383
-1.6981471 0.96069378 4.9472971
-1.6470394 0.9770897 4.9030166
-1.6636407 0.99949533 4.821085
-1.6476868 1.0296016 4.7783809
-1.5806295 1.0267019 4.7921653
-1.6251152 1.0609425 4.748692
-1.5977138 1.0369229 4.7114587
-1.6001865 1.0767651 4.6522298
-1.5550877 1.0812361 4.6332674
-1.5581933 1.0994992 4.5595388
-1.5769135 1.1515571 4.5474749
-1.5375024 1.1463853 4.5010557
-1.5327331 1.1451633 4.5083914
-1.5271466 1.1748524 4.4502139
-1.4825355 1.158515 4.4188304
-1.4784811 1.1839422 4.382309
-1.5197917 1.2149608 4.3317223
-1.4687579 1.246924 4.3285084
-1.4780322 1.2516521 4.2980118
-1.4333154 1.2333988 4.2394943
-1.4722914 1.2875704 4.2210736
-1.4187272 1.3111022 4.224659
-1.4083905 1.3357742 4.201683
-1.4168501 1.3204669 4.1281424
-1.3989501 1.3709095 4.0803275
-1.3703575 1.3094447 4.088994
-1.3963108 1.3523351 4.0309715
-1.3809136 1.3341937 4.0361562
-1.3691629 1.4314649 4.0113602
-1.3762523 1.4082389 4.0000844
-1.3405215 1.4198948 3.9962032
-1.3407637 1.4026246 3.9467552
-1.2970802 1.4676806 3.9037535
-1.3059965 1.4479837 3.9346402
-1.3322486 1.4410021 3.8917701
-1.2877163 1.4954066 3.8034604
-1.2811558 1.4771593 3.8212404
-1.2949034 1.5211601 3.8147058
-1.2994432 1.5177214 3.7616298
-1.2963318 1.5442576 3.7709923
-1.2891839 1.5214479 3.7658472
-1.2608943 1.5491412 3.7059414
-1.2451055 1.541078 3.6666551
-1.2920225 1.5777172 3.6524205
-1.7077498 0.93346405 4.9924102
-1.6929069 0.94637114 4.9410005
-1.658053 0.97504085 4.884376
-1.6217891 1.0012454 4.8402238
-1.6126499 0.98278755 4.8210521
-1.6174303 1.048803 4.8076992
-1.5783137 1.0352473 4.7689786
-1.5827942 1.0632384 4.6886611
-1.6016432 1.111039 4.6971669
-1.5779351 1.093982 4.6622019
-1.5802017 1.107888 4.6234102
-1.5412906 1.1338502 4.5548248
-1.5380236 1.1496373 4.5337014
-1.5221533 1.1311048 4.4689512
-1.522388 1.1611832 4.4409995
-1.4851818 1.1823622 4.4425559
-1.4732072 1.199869 4.3936172
-1.4898177 1.2043048 4.3874154
-1.4649514 1.2440255 4.3282461
-1.4781892 1.265789 4.3485227
-1.4939533 1.2562138 4.2917466
-1.4488268 1.240249 4.2483687
-1.4124806 1.2917491 4.2241402
-1.4394076 1.2965552 4.2166953
-1.3883828 1.3163576 4.1428571
-1.421319 1.3571479 4.1464534
-1.3979938 1.357056 4.0830078
-1.3593923 1.3720423 4.0974965
-1.3323692 1.3468497 4.091198
-1.3498873 1.4157097 4.0309792
-1.3393581 1.4316945 4.0180602
-1.3450795 1.42861 3.9952147
-1.3528489 1.4424181 3.9576848
-1.357165 1.4246136 3.9008327
-1.3581927 1.4609483 3.906122
-1.2891005 1.4394776 3.870815
-1.3303078 1.4631124 3.8531809
-1.2925231 1.4765596 3.8382938
-1.3085405 1.4689602 3.7789166
-1.254055 1.5214382 3.8080833
-1.2596638 1.5077975 3.7454538
-1.2786114 1.4990915 3.7031367
-1.2670783 1.5587502 3.7302916
-1.2588993 1.5192581 3.6837177
-1.2361736 1.5274975 3.7056372
-1.2165952 1.5762341 3.6653473
-1.6642687 0.90705138 4.968729
-1.6634737 0.92546779 4.9422936
-1.6513885 0.94519871 4.8917556
-1.6167563 0.99366641 4.8458037
-1.6193104 0.97873223 4.821084
-1.6009271 1.0001898 4.790267
-1.5628603 1.0127487 4.7209954
-1.5513965 1.0694863 4.7344899
-1.5604476 1.0963643 4.6180491
-1.565888 1.0361562 4.6124964
-1.5433376 1.1483432 4.6286659
-1.5442386 1.0959288 4.5662642
-1.4920671 1.1576612 4.5369406
-1.5183949 1.1318438 4.4728117
-1.5308256 1.1757853 4.464366
-1.4558426 1.1710141 4.42061
-1.4752766 1.2082818 4.3575816
-1.4493037 1.2461672 4.4013319
-1.4265629 1.2270174 4.3840771
-1.4452015 1.2217648 4.3142056
-1.4102726 1.2554979 4.2750111
-1.4472646 1.2469684 4.2284679
-1.4232304 1.2587591 4.1664639
-1.4258287 1.2943062 4.1968942
-1.4048761 1.2754585 4.1426201
-1.4102457 1.3400257 4.1295075
-1.3718157 1.3291271 4.0618277
-1.3838304 1.3449876 4.1082845
-1.3685391 1.4018812 4.0560508
-1.3742299 1.3831817 3.9971902
-1.3276743 1.3985903 4.0330091
-1.3097266 1.4605262 3.9867163
-1.3673466 1.4353625 3.9168119
-1.3181698 1.427133 3.9134789
-1.3066826 1.4095167 3.8840778
-1.2982545 1.4930365 3.877883
-1.2896191 1.4566007 3.8710732
-1.2757756 1.4756961 3.8153679
-1.2877743 1.4759636 3.8297982
-1.2711447 1.5410162 3.80934
-1.3032057 1.5361814 3.785337
-1.2354977 1.4998364 3.7175913
-1.2445 1.5075958 3.7118561
-1.2424177 1.5624957 3.6845965
-1.2201509 1.565836 3.6863694
-1.6773804 0.9280442 4.9965611
-1.6492478 0.94796169 4.9702377
-1.6422606 0.93855828 4.9199376
-1.6178336 1.0286494 4.8781633
-1.6281391 0.98041791 4.8293796
-1.6092029 1.0066535 4.8107743
-1.6092548 1.0003133 4.7750959
-1.5569053 1.0243973 4.7145996
-1.5583147 1.0922561 4.7154198
-1.5926795 1.0508976 4.6634254
-1.5466853 1.1142762 4.592782
-1.5019648 1.1001681 4.5779419
-1.5038768 1.1498266 4.5839524
-1.5034895 1.125405 4.5228043
-1.50333 1.1668278 4.4988251
-1.4549638 1.1566727 4.5025983
-1.4824383 1.1817256 4.3872433
-1.5156977 1.2150279 4.450747
-1.433521 1.2570207 4.3720951
-1.4613336 1.2299542 4.3361821
-1.4157263 1.2780921 4.2846804
-1.4646564 1.21954 4.2684765
-1.4060602 1.3012892 4.2647514
-1.3985957 1.3244034 4.2231622
-1.4339944 1.3246776 4.1854067
-1.3970326 1.3476576 4.1420588
-1.3847404 1.3517792 4.1310768
-1.3788863 1.3663336 4.1084476
-1.3980188 1.3502557 4.0550194
-1.3414086 1.3874403 4.0258327
-1.340185 1.4065498 4.0071654
-1.3341836 1.3956463 3.9788511
-1.3006319 1.4098535 3.9564378
-1.2801292 1.4506959 3.9217341
-1.3472563 1.4494826 3.9053996
-1.3040891 1.4558837 3.8925846
-1.2833346 1.4521403 3.8333933
-1.2952967 1.4425501 3.8764038
-1.2781169 1.4863017 3.8112953
-1.2761809 1.4773586 3.8193095
-1.2762315 1.4806921 3.7708859
-1.2537349 1.4899856 3.7299454
-1.2502118 1.5233095 3.7269549
-1.1983424 1.5175768 3.686188
-1.222614 1.5494893 3.685112
-1.2448083 1.5657405 3.6417956
-1.6329117 0.92994684 4.9659605
-1.6857756 0.90455747 4.9395251
-1.5926281 0.95829374 4.859725
-1.6218734 0.96479785 4.9016652
-1.6287501 0.99977762 4.7970982
-1.6048018 1.0427163 4.7861505
-1.5659276 1.0526866 4.7719979
-1.5701972 1.0329825 4.6768694
-1.5528301 1.0767114 4.7054305
-1.5450602 1.0847214 4.6123266
-1.5578268 1.0934922 4.6420588
-1.5137221 1.1437033 4.5680513
-1.4960777 1.0988342 4.5445008
-1.4958982 1.1863141 4.5156994
-1.5022969 1.1723171 4.4706712
-1.4552783 1.1910459 4.4437857
-1.4467069 1.195859 4.4217653
-1.4785501 1.2110904 4.3923087
-1.4335767 1.252431 4.3590794
-1.4486248 1.2251586 4.3244572
-1.4525354 1.2502878 4.2896609
-1.3762827 1.2386442 4.2349653
-1.4022577 1.2838969 4.2537622
-1.3975818 1.2648622 4.1995792
-1.4144241 1.2943797 4.2023978
-1.3764457 1.3435631 4.1618571
-1.3782798 1.3263468 4.1170249
-1.3325584 1.3517544 4.0703979
-1.3226967 1.3651059 4.0638056
-1.3306043 1.4035909 4.011939
-1.3524591 1.3943981 4.0031123
-1.3278404 1.3757584 3.9823329
-1.3126572 1.4014032 3.9689
-1.3260443 1.4249425 3.9239516
-1.3176701 1.4687784 3.8675735
-1.2979562 1.4231322 3.8795617
-1.2670982 1.4998326 3.8496306
-1.2864331 1.4643908 3.8441753
-1.3072294 1.4721448 3.8239622
-1.2863346 1.512748 3.7849112
-1.2756438 1.5414425 3.7723582
-1.2647667 1.5310216 3.7294195
-1.2133822 1.5138617 3.6894267
-1.2384839 1.5375866 3.7203522
-1.2096347 1.5728402 3.6782141
-1.2073079 1.6103805 3.6817486
-1.6618744 0.91288412 4.9716082
-1.6480833 0.97036505 4.9143105
-1.6201351 0.96708596 4.8596921
-1.5867525 0.95760006 4.8470159
-1.5910699 1.0281022 4.7745733
-1.6243836 1.0210989 4.792665
-1.5438321 1.0360668 4.715169
-1.5751677 1.0807419 4.7155585
-1.5498328 1.0814245 4.6570888
-1.5071275 1.0754499 4.6321507
-1.5237231 1.1088227 4.5966911
-1.5372282 1.0634048 4.5192986
-1.5199307 1.1178019 4.5290742
-1.4984425 1.1546905 4.4780478
-1.4630345 1.1968454 4.4983125
-1.4970247 1.1937113 4.4335446
-1.4891998 1.2251666 4.4125032
-1.459399 1.2551907 4.3554292
-1.4211442 1.2350186 4.3465438
-1.438766 1.2763602 4.2815175
-1.41678 1.2647792 4.2696843
-1.4255482 1.2453856 4.2114406
-1.4182731 1.2663666 4.2404103
-1.3697952 1.2672735 4.1504459
-1.3819205 1.2990746 4.1552358
-1.390712 1.3256845 4.1437817
-1.3723447 1.3562399 4.0872951
-1.383183 1.3359882 4.0805469
-1.3366103 1.3514533 4.0786781
-1.3075306 1.3830537 4.0378942
-1.29843 1.3803921 3.9821506
-1.3074987 1.4103551 3.9794185
-1.2911861 1.4018226 3.9472189
-1.2937183 1.4475281 3.9385118
-1.3096884 1.4217739 3.8911824
-1.3209282 1.475968 3.8440788
-1.2594695 1.4505944 3.8441358
-1.2611778 1.4842887 3.8321047
-1.2114887 1.4635137 3.8066421
-1.2110324 1.5051695 3.7655132
-1.2572103 1.5213363 3.7680259
-1.2509173 1.5292068 3.7032597
-1.2424595 1.5176821 3.6749012
-1.2028042 1.5098113 3.699333
-1.2254069 1.5401212 3.6501176
-1.6413752 0.90007114 5.0242972
-1.6418205 0.93733281 4.9647951
-1.5990843 0.9289425 4.8934054
-1.6044124 0.96106875 4.8678169
-1.5722593 0.99971956 4.8189607
-1.578362 0.9834252 4.7868438
-1.5836642 1.0004475 4.7706532
-1.5388442 1.0327657 4.71701
-1.535201 1.0575298 4.6865931
-1.5647589 1.1066039 4.6350942
-1.5507296 1.1016816 4.6141706
-1.5215691 1.1275882 4.5657535
-1.4701512 1.1502182 4.5578599
-1.5096625 1.1749941 4.4833283
-1.4713988 1.1662316 4.4949088
-1.4924417 1.1667144 4.4247279
-1.4270604 1.2054131 4.4336653
-1.4280927 1.2057655 4.377305
-1.4284722 1.2408276 4.3488059
-1.4050013 1.2592564 4.3327522
-1.4125803 1.2653577 4.3325801
-1.4189034 1.263123 4.2855291
-1.4048567 1.2830145 4.2431645
-1.3467158 1.3004068 4.2108283
-1.3747841 1.3518945 4.137763
-1.3564472 1.3475437 4.122263
-1.3497974 1.2948096 4.1576281
-1.3717343 1.3586619 4.0996981
-1.3539932 1.3804593 4.0647774
-1.3497609 1.3734646 4.0467801
-1.3250329 1.4170147 3.9873929
-1.2856634 1.4144657 3.9765508
-1.3014828 1.4055965 3.9581778
-1.3079333 1.3970203 3.9106688
-1.2721721 1.4240943 3.9127805
-1.3258172 1.4334385 3.894047
-1.2718861 1.4843789 3.8559964
-1.2493312 1.4862583 3.8528092
-1.2616527 1.5014699 3.8110988
-1.2586451 1.4834083 3.8003941
-1.2551724 1.4740731 3.7908399
-1.2352918 1.5164841 3.7631056
-1.2608898 1.5212137 3.735908
-1.1985881 1.5300045 3.7229776
-1.2038943 1.5633175 3.6715007
-1.2175134 1.5395445 3.6803627
-1.6491468 0.90797895 4.9480991
-1.6003336 0.94603574 4.9698553
-1.5847803 0.95029652 4.9124045
-1.5545192 0.96252954 4.8780284
-1.5827264 0.98173797 4.8244252
-1.549397 1.0103422 4.8032761
-1.5395561 1.0222824 4.7372031
-1.5759284 0.99599832 4.7245393
-1.5297559 1.0681369 4.6460428
-1.5322254 1.105987 4.6763473
-1.4873236 1.0892905 4.6345582
-1.4912728 1.1207147 4.5507298
-1.5196154 1.1493031 4.5569386
-1.4794437 1.157959 4.502604
-1.4557903 1.1570981 4.4863181
-1.4723153 1.1426286 4.4245977
-1.4299842 1.2171446 4.4085431
-1.4307995 1.220268 4.4104099
-1.4285947 1.2396096 4.3496699
-1.3971539 1.2276515 4.310595
-1.4062471 1.2456872 4.3067102
-1.4141072 1.2573597 4.2632198
-1.3808529 1.2847023 4.2192459
-1.3901702 1.2922139 4.2262454
-1.3665273 1.3041301 4.1682882
-1.3307153 1.332015 4.1549516
-1.3446827 1.3540156 4.1257038
-1.2992269 1.3543596 4.0982018
-1.3302931 1.3832963 4.0427189
-1.3371207 1.3927785 4.0213881
-1.3460784 1.4215676 4.0063267
-1.2855277 1.3859187 4.0274725
-1.3009729 1.4095892 3.9531989
-1.2914835 1.4648389 3.9269614
-1.2562585 1.4236089 3.9334855
-1.2359505 1.4606789 3.873524
-1.2349437 1.4600673 3.8495264
-1.2460796 1.4941871 3.847409
-1.2671142 1.515397 3.8064137
-1.2722495 1.4706242 3.8209083
-1.2051049 1.4996488 3.761678
-1.2038743 1.5294603 3.7240684
-1.1769755 1.5052865 3.7178216
-1.2068084 1.5775889 3.6716101
-1.22223 1.5511578 3.6687644
-1.2276261 1.5723417 3.6238859
-1.6354229 0.94676524 4.9837914
-1.5668006 0.95047528 4.9163933
-1.58676 0.95111477 4.8646469
-1.5730104 0.96590602 4.8440108
-1.5244884 0.99845946 4.8557577
-1.5723631 1.0378189 4.8021045
-1.5140828 1.023664 4.7282376
-1.5417206 1.0535166 4.7139788
-1.5074186 1.0824697 4.6792459
-1.4871669 1.0997829 4.646791
-1.4931966 1.0858644 4.5966964
-1.4754915 1.095449 4.5399394
-1.4540056 1.1268589 4.5491099
-1.4649217 1.1536481 4.4934292
-1.4537979 1.1761082 4.4911323
-1.4737415 1.1795038 4.4008498
-1.4045923 1.2022829 4.4331169
-1.3923006 1.2002668 4.3897114
-1.3938061 1.2139175 4.3401008
-1.4083103 1.2631277 4.3052392
-1.3926301 1.2551733 4.271028
-1.3709416 1.2527277 4.2581391
-1.4146098 1.2691648 4.1961551
-1.3522121 1.3067411 4.1749663
-1.3499633 1.3285878 4.1199188
-1.3425965 1.3513331 4.1332622
-1.3851217 1.3285867 4.1191726
-1.3315816 1.3696653 4.078331
-1.3169584 1.3591644 4.0829573
-1.3304511 1.3878791 4.0021048
-1.2772104 1.3712354 4.013834
-1.3104783 1.4109668 3.979516
-1.2888252 1.390691 3.9850907
-1.3072561 1.4283354 3.9132657
-1.2914617 1.4504435 3.8888462
-1.2538799 1.448493 3.8539579
-1.2616754 1.4687458 3.8043137
-1.2558289 1.4816943 3.8354683
-1.2610157 1.5193214 3.8266139
-1.2249593 1.513201 3.7811825
-1.242056 1.4777391 3.7694542
-1.2213258 1.5299751 3.7091
-1.2300866 1.5563049 3.7052543
-1.2206684 1.5321754 3.6753402
-1.2047886 1.5784564 3.6619864
-1.6281023 0.92474782 4.9827113
-1.5983002 0.9354704 4.9537158
-1.5805389 0.9550814 4.925066
-1.61447 0.9749918 4.8354955
-1.5834652 1.0022938 4.8232923
-1.5355531 0.98872387 4.8153148
-1.539651 1.0212148 4.7634988
-1.5179121 1.0523471 4.7447543
-1.5026009 1.0503112 4.7236829
-1.4702806 1.0902936 4.6804032
-1.4742891 1.059793 4.6176071
-1.4868906 1.1490611 4.5901995
-1.4956628 1.1539439 4.5780535
-1.520378 1.1845856 4.5073166
-1.4653696 1.1839106 4.5112243
-1.4413391 1.1516819 4.4316516
-1.421635 1.1731462 4.3908925
-1.3752114 1.2073419 4.3766894
-1.4404304 1.2323589 4.3682017
-1.385955 1.2268891 4.324738
-1.3516935 1.2397066 4.2702365
-1.3707985 1.3022928 4.2580523
-1.3799236 1.2841903 4.196907
-1.357936 1.3126816 4.2052274
-1.389945 1.291952 4.1509171
-1.3341733 1.2997339 4.1281772
-1.3169303 1.3512555 4.0868444
-1.3108252 1.3475813 4.0527587
-1.3224612 1.352181 4.0597134
-1.2786885 1.3814589 4.0644431
-1.2841798 1.359183 4.0188947
-1.282565 1.4192262 4.0241699
-1.310359 1.3934031 4.0099897
-1.2524376 1.4494781 3.9496751
-1.3015313 1.4309498 3.9136887
-1.2416189 1.4607185 3.9101601
-1.234346 1.4128118 3.8617563
-1.2628052 1.4682883 3.8329308
-1.2794706 1.4851741 3.8205698
-1.2412585 1.4813455 3.7750564
-1.2228814 1.4783067 3.7504323
-1.2031972 1.5345973 3.7575936
-1.1801112 1.539335 3.7719083
-1.2217089 1.5364078 3.7193072
-1.2095338 1.5553215 3.6644008
-1.1642923 1.5856378 3.6800082
-1.601223 0.91335702 5.034256
-1.5718846 0.94351602 4.9861774
-1.5634627 0.96052849 4.9158645
-1.5924525 0.99571675 4.8786874
-1.5713387 0.97510511 4.8253179
-1.5333539 0.99245805 4.8161621
-1.541356 1.0352894 4.7489004
-1.5660018 1.0383224 4.7078257
-1.5233098 1.0459564 4.6901288
-1.478735 1.0663277 4.6510453
-1.4872308 1.0642536 4.5899758
-1.5060349 1.1209586 4.5934286
-1.4830173 1.1501341 4.5499473
-1.4683139 1.1661074 4.5150957
-1.463677 1.1500416 4.4901972
-1.4199995 1.1510847 4.4780984
-1.4274684 1.1900514 4.4109812
-1.4030281 1.2046475 4.3537178
-1.3972315 1.2185397 4.3806772
-1.3721373 1.2518307 4.3392434
-1.3715014 1.2962521 4.272758
-1.3581681 1.2588615 4.2712717
-1.3575649 1.3281692 4.2006302
-1.4093782 1.3165243 4.2250161
-1.3616898 1.3248241 4.1737528
-1.371137 1.3187013 4.1508636
-1.3232174 1.3364528 4.1062908
-1.300882 1.3668557 4.1056452
-1.3269006 1.3481846 4.0546722
-1.297623 1.3917025 4.0529394
-1.2873641 1.3966994 4.0208635
-1.2439916 1.4069141 4.002573
-1.2563809 1.4001914 3.9447043
-1.2600917 1.4358685 3.9374564
-1.2845788 1.439561 3.8967957
-1.2450556 1.4527928 3.886555
-1.1695988 1.4821833 3.8708391
-1.2273928 1.4529091 3.8401546
-1.2451019 1.4766237 3.8100746
-1.2661211 1.4789218 3.8008387
-1.2081934 1.4953185 3.7788723
-1.2099842 1.5093061 3.7273054
-1.2202652 1.5297575 3.6886163
-1.2376934 1.5569161 3.6720867
-1.1997843 1.5367488 3.6775634
-1.1742494 1.6008062 3.649683
-1.5850537 0.88403016 4.9535241
-1.5549755 0.93050349 4.9600115
-1.5708489 0.97722584 4.8642383
-1.5795503 0.98107928 4.8594661
-1.5319809 0.99964988 4.8204913
-1.5407045 1.0224856 4.7729268
-1.5135643 1.0401436 4.7113023
-1.5168777 1.0664918 4.7261806
-1.5050355 1.0935565 4.6807995
-1.4898422 1.1196189 4.6705599
-1.4586523 1.0867684 4.5947232
-1.4798173 1.1163355 4.5526438
-1.4413886 1.1477708 4.5174518
-1.4610766 1.1200984 4.5384784
-1.4225465 1.1771258 4.4684196
-1.3813642 1.1741768 4.4425321
-1.4127579 1.2045656 4.4149556
-1.4337476 1.2354774 4.3784847
-1.4064516 1.1796012 4.3111176
-1.3511648 1.2551968 4.3013787
-1.363968 1.2742555 4.2718949
-1.352343 1.2877983 4.227571
-1.3578759 1.2931111 4.2354007
-1.3252933 1.3212124 4.184638
-1.3381121 1.3189937 4.1629777
-1.3499695 1.3476071 4.1174135
-1.2777097 1.3764068 4.139967
-1.341543 1.3906956 4.0717502
-1.2799296 1.4049129 4.0630016
-1.3091586 1.387979 4.0504742
-1.3039274 1.396801 3.9894884
-1.2611262 1.4030212 3.9469295
-1.2407986 1.4493418 3.9739528
-1.2411854 1.4591336 3.9078021
-1.2384869 1.4200808 3.9125669
-1.2604049 1.4447417 3.884954
-1.224408 1.4364727 3.8760507
-1.2307842 1.5049906 3.8309953
-1.2160347 1.4959651 3.803865
-1.1659102 1.5208054 3.7866971
-1.2214735 1.5037805 3.7215874
-1.1956447 1.5279641 3.7443237
-1.1757075 1.5415419 3.7202873
-1.1799111 1.5578908 3.6571155
-1.1712911 1.5551363 3.6235962
-1.5825818 0.91289377 4.9865823
-1.5942628 0.94089633 4.9469929
-1.5829761 0.98841089 4.9115639
-1.5651065 0.99191105 4.9107137
-1.5133998 0.99594176 4.8219376
-1.5354724 0.99581087 4.7997909
-1.4850115 1.0211285 4.7622128
-1.5116968 1.0387433 4.7339897
-1.4826648 1.0837433 4.6708016
-1.4874423 1.0755934 4.6398516
-1.4843878 1.1247871 4.5898604
-1.4669173 1.152684 4.5700145
-1.4258329 1.124966 4.5274458
-1.4593174 1.121537 4.5000405
-1.4354734 1.1689558 4.4643641
-1.4227344 1.1478771 4.4830222
-1.3964497 1.1637644 4.4003892
-1.3927839 1.222788 4.3937178
-1.3800229 1.2345309 4.3783588
-1.3865005 1.2145593 4.334672
-1.3753349 1.2705841 4.3223138
-1.3654422 1.286206 4.2797346
-1.3728328 1.2616405 4.2613969
-1.3535775 1.3301817 4.2433577
-1.3184159 1.3315673 4.1501174
-1.3307321 1.2931314 4.1711402
-1.3559259 1.3690871 4.1285648
-1.3194177 1.3595299 4.1034002
-1.2751963 1.3416393 4.1100688
-1.2943447 1.3874152 4.0590148
-1.2992052 1.3448701 3.9661477
-1.270234 1.4200491 3.9849415
-1.2761387 1.4091498 3.9629912
-1.2392882 1.4288068 3.9747019
-1.2269636 1.4229232 3.9121766
-1.2083143 1.4627538 3.8855505
-1.2542013 1.4854877 3.8642139
-1.256319 1.4818015 3.8458292
-1.2236166 1.5058525 3.8047066
-1.1888371 1.4660928 3.8174059
-1.2327681 1.5146441 3.7963827
-1.2193865 1.5152329 3.7421272
-1.1727712 1.5427821 3.7287889
-1.189871 1.5454991 3.7035625
-1.1636134 1.5513474 3.710351
-1.1435486 1.5934509 3.6271577
-1.5567977 0.90477061 4.9608197
-1.5611107 0.94362837 4.9446826
-1.5576116 0.94902754 4.8666987
-1.5396225 0.98809272 4.8630018
-1.5259088 0.97031474 4.8190589
-1.5408725 1.005313 4.8251495
-1.4931462 1.019194 4.7661958
-1.495995 1.0402179 4.7287493
-1.4957865 1.0619023 4.6888289
-1.4701126 1.0980227 4.6637506
-1.432292 1.0611012 4.5895343
-1.4657999 1.1034658 4.5699582
-1.4418579 1.127809 4.5672936
-1.4086939 1.1571709 4.5165753
-1.4105651 1.1641489 4.5021801
-1.4064723 1.1877944 4.4187913
-1.3828956 1.2089398 4.3846974
-1.4042753 1.2185774 4.4064989
-1.3869076 1.253515 4.3549323
-1.3799167 1.2383878 4.3347397
-1.3677397 1.2387401 4.3066726
-1.3555151 1.2257518 4.2795959
-1.3231227 1.2933011 4.2581515
-1.3520079 1.2967691 4.2171497
-1.3082911 1.2944781 4.1644249
-1.3334413 1.3420812 4.1755996
-1.3252598 1.3471842 4.1007118
-1.3010242 1.377371 4.09162
-1.2572209 1.3380232 4.07337
-1.283578 1.3792639 3.9759784
-1.3234924 1.3934808 3.9988847
-1.2981586 1.378985 3.9964011
-1.2361407 1.3824394 4.0233908
-1.2504871 1.4346149 3.9289069
-1.2267325 1.4310787 3.8916633
-1.2102764 1.4821532 3.867095
-1.2483655 1.4653021 3.8456798
-1.2153839 1.4824641 3.8380179
-1.2082107 1.4758632 3.7884305
-1.2093118 1.4937907 3.7741656
-1.2007644 1.4821862 3.7709186
-1.181196 1.5375183 3.7099485
-1.1957985 1.5441318 3.7051673
-1.1474141 1.5462866 3.6940634
-1.1726347 1.5414788 3.6533322
-1.1334817 1.5370235 3.6654136
-1.5340654 0.90815163 5.0173259
-1.5198866 0.90667027 4.9476337
-1.56073 0.98475319 4.8861542
-1.5243808 0.96751559 4.8264465
-1.5524966 0.99755281 4.7678185
-1.535002 1.0189711 4.7703271
-1.4800018 1.0658711 4.7035365
-1.4648291 1.0666479 4.7007346
-1.4704086 1.0368366 4.6765604
-1.4234519 1.0774887 4.644639
-1.4732604 1.0994469 4.572938
-1.4588104 1.1471419 4.5650024
-1.4187306 1.1392337 4.55546
-1.4109985 1.1623304 4.4921489
-1.3602614 1.1710796 4.4462333
-1.4168977 1.2117028 4.4107332
-1.4003478 1.2127264 4.3986716
-1.3638304 1.2137784 4.3665471
-1.3282155 1.2420685 4.3290877
-1.3795518 1.2376392 4.2983479
-1.3661276 1.2949278 4.2675762
-1.3493633 1.2703043 4.2648258
-1.3405702 1.2715316 4.1894774
-1.3257127 1.302153 4.1917357
-1.3346305 1.3255491 4.1515765
-1.3259887 1.3390576 4.1092491
-1.3364115 1.3458797 4.1054087
-1.2837297 1.391223 4.0594721
-1.2529951 1.3687844 4.0599856
-1.2732126 1.3821408 4.0194225
-1.2320242 1.3893148 3.978487
-1.2345093 1.4072177 3.9740653
-1.240932 1.4262841 3.9405942
-1.2417675 1.4373816 3.9098139
-1.2205758 1.4395421 3.9066062
-1.227641 1.4679992 3.8810172
-1.1835604 1.4771487 3.8330848
-1.1755426 1.5100654 3.8548827
-1.2019637 1.4865103 3.8052573
-1.1660372 1.5403954 3.7834501
-1.1789371 1.4611861 3.7792583
-1.1421617 1.5087576 3.7369614
-1.1682707 1.5257016 3.7372165
-1.1413448 1.5421625 3.6717651
-1.1856807 1.5178919 3.6829205
-1.5912356 0.9000231 5.0167174
-1.5254426 0.90902168 4.9418354
-1.5257945 0.9513976 4.9025612
-1.542522 0.94913155 4.8555651
-1.5099607 0.97598016 4.835916
-1.5311943 1.0157144 4.8052487
-1.5113025 1.0471318 4.7427359
-1.4672654 1.039299 4.7512736
-1.4833715 1.0524194 4.6955118
-1.4492711 1.07249 4.676722
-1.4527919 1.1099093 4.6188912
-1.4534309 1.1328775 4.5533586
-1.4156929 1.1741166 4.5115891
-1.3854059 1.1612145 4.5326867
-1.4084781 1.1601152 4.4930916
-1.4083954 1.168563 4.4560866
-1.3678416 1.2055255 4.4278693
-1.3509551 1.176999 4.3581843
-1.4059532 1.2127278 4.3304701
-1.3667507 1.1854153 4.3402681
-1.3531803 1.2303877 4.2924223
-1.3488597 1.2451935 4.2651119
-1.3508688 1.2692188 4.2493496
-1.3190006 1.3112153 4.2030725
-1.290972 1.3003244 4.1854692
-1.3020563 1.3450253 4.1493864
-1.2941654 1.3559934 4.1192617
-1.2786343 1.3611889 4.0936265
-1.267284 1.3660785 4.0981083
-1.2536597 1.3600044 4.0415158
-1.2727809 1.3870662 4.01264
-1.2535077 1.3862182 3.9876652
-1.2647829 1.4238999 3.9903369
-1.2448739 1.4135886 3.990509
-1.2046902 1.4221088 3.9289119
-1.2257488 1.4426079 3.9125504
-1.2150552 1.4490367 3.8806994
-1.2227988 1.4164507 3.8794222
-1.2109267 1.4718019 3.8042367
-1.1834071 1.4993184 3.7923987
-1.1769629 1.5239055 3.7686949
-1.1814247 1.5196897 3.7455065
-1.1506882 1.5112755 3.7503722
-1.160674 1.5308045 3.7388685
-1.179034 1.5310593 3.6790154
-1.1330882 1.5531783 3.6440532
-1.5237807 0.92801821 4.9766388
-1.5330564 0.93619043 4.9565663
-1.5009428 0.94437629 4.8846536
-1.4888607 1.0118821 4.8602743
-1.463836 1.0014081 4.8329244
-1.4965851 1.0023491 4.7875924
-1.4639369 1.0359346 4.7695026
-1.4527091 1.0349433 4.7039905
-1.4425662 1.057184 4.6702328
-1.4263761 1.0828089 4.6467996
-1.4630711 1.1150835 4.5909429
-1.4595594 1.0728996 4.5493865
-1.407316 1.1521062 4.5702958
-1.4258064 1.1420823 4.5247698
-1.4033074 1.1333183 4.4799614
-1.3732523 1.1759443 4.4511528
-1.3749341 1.1777149 4.390986
-1.3527385 1.1960597 4.3964396
-1.3682928 1.2722948 4.3420773
-1.364682 1.2308712 4.3130579
-1.3737938 1.277715 4.2594056
-1.3226504 1.2805949 4.2763386
-1.2914548 1.2456009 4.1988282
-1.3154 1.3082598 4.2214985
-1.3248253 1.311847 4.152925
-1.3080873 1.3395934 4.186348
-1.2735788 1.3291048 4.0917554
-1.2226217 1.372551 4.1006041
-1.2618622 1.3882699 4.0370202
-1.2850771 1.3621516 4.061039
-1.259217 1.3839505 4.0463848
-1.260548 1.3811398 3.9903436
-1.2613783 1.4412806 3.9490895
-1.2078973 1.4534916 3.9085805
-1.2146357 1.4291017 3.9250147
-1.1989621 1.4722117 3.8836296
-1.2018316 1.4809252 3.8486657
-1.2102562 1.508695 3.834547
-1.1541848 1.4900347 3.8166378
-1.1843953 1.5088323 3.8113015
-1.2148883 1.569142 3.7359204
-1.1737487 1.5120479 3.7622302
-1.1344979 1.5289104 3.7120774
-1.1575969 1.5191355 3.680783
-1.1529696 1.5529574 3.6869717
-1.1134746 1.5732818 3.6431398
-1.5161934 0.91612005 4.9829936
-1.5615134 0.96719551 4.922792
-1.4984831 0.95576864 4.8984795
-1.5077425 0.98004919 4.8497276
-1.473508 1.059087 4.8139334
-1.4838526 1.0179118 4.7941484
-1.4681083 1.0198919 4.7612033
-1.4804578 1.0392971 4.7112117
-1.4531455 1.0812694 4.6599946
-1.4329551 1.0890834 4.6358223
-1.4296858 1.1324341 4.5772991
-1.4146578 1.1415012 4.57513
-1.3882444 1.121834 4.5434279
-1.3656704 1.1487961 4.4803495
-1.4078852 1.1856939 4.4623194
-1.3470311 1.2218403 4.4238892
-1.3566602 1.2087028 4.4462323
-1.3215841 1.2311939 4.3674617
-1.3436961 1.2102301 4.3264952
-1.329089 1.2514396 4.3438325
-1.3167028 1.2997221 4.2377882
-1.3081702 1.2794025 4.2625237
-1.3178567 1.2781101 4.2281947
-1.2790064 1.2696537 4.2017627
-1.3000878 1.3056879 4.1672473
-1.2928032 1.3646194 4.1173649
-1.2887906 1.3548545 4.1269045
-1.2374504 1.3769572 4.0749788
-1.2526344 1.3982859 4.0648761
-1.1814343 1.3442904 4.0251789
-1.2446856 1.377391 4.0088019
-1.2400166 1.4007932 3.9629214
-1.2214957 1.4161196 3.9295664
-1.2044117 1.4777874 3.8880689
-1.2121017 1.4771398 3.8960085
-1.2140228 1.445336 3.8652587
-1.2261847 1.4308083 3.8429356
-1.2136469 1.4821682 3.8233705
-1.168303 1.4424051 3.8019779
-1.1827817 1.4897434 3.7804532
-1.1696159 1.4862854 3.7345581
-1.1520864 1.5104671 3.7247436
-1.1409675 1.5099149 3.708359
-1.1036422 1.5182137 3.7084024
-1.1562937 1.5206656 3.7195904
-1.530141 0.9236508 5.0156083
-1.5282937 0.94852191 4.9984069
-1.5109428 0.93872333 4.9373789
-1.4928643 0.95690894 4.8813982
-1.4871097 0.96918046 4.8337283
-1.4628731 1.0388231 4.815557
-1.4843776 1.0215696 4.7294712
-1.4680542 1.0416595 4.7158394
-1.431892 1.0724688 4.6707439
-1.4343567 1.075642 4.5972948
-1.4308569 1.0818777 4.6215072
-1.412582 1.0968542 4.6202364
-1.3966038 1.1184031 4.5327644
-1.3882407 1.1547232 4.4844923
-1.3287427 1.1647601 4.4829631
-1.3464186 1.1751308 4.4889545
-1.3048565 1.2075149 4.3930359
-1.3467364 1.1723651 4.3969274
-1.3480659 1.2372943 4.3477311
-1.326414 1.25964 4.3376417
-1.3501515 1.250192 4.3162842
-1.3051704 1.2250329 4.2663918
-1.325044 1.2829845 4.2305717
-1.2661523 1.3322967 4.2076416
-1.2826759 1.2949904 4.1930799
-1.2817566 1.3118104 4.1548543
-1.2403755 1.3138169 4.0856323
-1.2868347 1.3708045 4.0975523
-1.281898 1.3657051 4.0522833
-1.2387174 1.373582 4.0636458
-1.2045246 1.3499154 3.9768085
-1.2528263 1.3908584 3.9742312
-1.1848941 1.41215 3.9358144
-1.2062101 1.4060942 3.958432
-1.1940504 1.4118264 3.9289842
-1.2075962 1.4216895 3.8865893
-1.1738048 1.4587837 3.8716221
-1.172465 1.4381319 3.8216681
-1.1476083 1.4556262 3.8372152
-1.1288912 1.4700321 3.7886558
-1.1585273 1.5184007 3.7512949
-1.1608355 1.4867301 3.7344368
-1.1508913 1.5564299 3.7110662
-1.1025791 1.5451483 3.6868365
-1.1142192 1.5571976 3.6946394
-1.1005161 1.5582769 3.6569202
-1.5072671 0.94333434 4.9439139
-1.5127667 0.92455888 4.9382715
-1.5184749 0.96195495 4.8795047
-1.4874605 0.97879475 4.9069695
-1.490891 0.9606601 4.8473597
-1.4576072 1.0135171 4.7909236
-1.4321177 1.0710377 4.7464809
-1.4326608 1.1065438 4.7327518
-1.4102367 1.0669616 4.6911645
-1.4526885 1.0970663 4.6682663
-1.3781307 1.1318257 4.6494942
-1.3667061 1.0850068 4.5644279
-1.3867471 1.1366063 4.5746994
-1.4050088 1.1387879 4.5246825
-1.386564 1.1767401 4.4736795
-1.3510873 1.1543303 4.4488702
-1.3668675 1.1675045 4.402597
-1.3007361 1.216491 4.4081922
-1.3007509 1.2192993 4.3656054
-1.3036718 1.2514502 4.29356
-1.3071166 1.2739043 4.2900128
-1.3150995 1.2871685 4.2550268
-1.2982241 1.2499992 4.2580757
-1.2886335 1.2934949 4.1776762
-1.2699877 1.3167073 4.1779957
-1.2851321 1.3164746 4.1653671
-1.2661375 1.3279775 4.1403975
-1.2498238 1.3437231 4.0715151
-1.2338455 1.3558637 4.0738511
-1.2119361 1.3579966 4.0617986
-1.2219917 1.3887624 4.0189443
-1.2436951 1.3878981 4.0164313
-1.2017504 1.3919057 3.9364166
-1.2119154 1.4224815 3.9123483
-1.2184739 1.4408133 3.8968756
-1.1964362 1.4715234 3.8697662
-1.176499 1.4638402 3.8561738
-1.1432872 1.4862409 3.8318889
-1.1808916 1.4913704 3.8190145
-1.1759402 1.5318561 3.7694283
-1.1461935 1.5270144 3.7574127
-1.1370717 1.5249783 3.7449303
-1.1256965 1.5006645 3.6953027
-1.1367085 1.5463918 3.6913128
-1.1414261 1.6007676 3.6734645
-1.1507834 1.5951796 3.658376
-1.4895087 0.92897874 4.9577098
-1.4937385 0.96760911 4.9308825
-1.4965265 0.95519787 4.8785748
-1.4643244 0.96575904 4.8408074
-1.430855 1.0194443 4.7777147
-1.4516407 1.0002136 4.7720075
-1.4397072 1.0265448 4.6828003
-1.4111589 1.0295448 4.6952581
-1.4168235 1.044251 4.6811514
-1.3788178 1.0492945 4.6188431
-1.423788 1.1112572 4.5941672
-1.3710431 1.1166718 4.5606232
-1.3596312 1.1347134 4.5362768
-1.3570672 1.1334882 4.5134001
-1.3629229 1.1696911 4.4359035
-1.3413469 1.1968875 4.3953876
-1.3304521 1.2046579 4.3991804
-1.3025551 1.2329587 4.3801303
-1.3083979 1.1998295 4.3388195
-1.3003359 1.2390364 4.2937894
-1.2697532 1.2713884 4.2622247
-1.2952586 1.2538975 4.2241516
-1.2817402 1.2914681 4.2484355
-1.2432001 1.3035194 4.2152319
-1.250055 1.3421749 4.1571932
-1.2411444 1.2846687 4.1263242
-1.2847667 1.3405286 4.1277423
-1.2192495 1.3561331 4.0691047
-1.2303798 1.3893858 4.0511737
-1.2044302 1.3553231 3.9815032
-1.1969421 1.3735335 4.0143847
-1.2059973 1.4109378 3.935389
-1.2180697 1.4279568 3.9306309
-1.2008432 1.4680113 3.9145651
-1.1684533 1.4160278 3.8725142
-1.215382 1.4572247 3.8907709
-1.1832651 1.5064317 3.8504243
-1.1823567 1.4658732 3.8503337
-1.1442624 1.460413 3.8283749
-1.1481887 1.5216205 3.8137898
-1.1399685 1.5096871 3.7784629
-1.1413209 1.5444138 3.7442079
-1.1176488 1.5338366 3.7070372
-1.0885936 1.5558763 3.6892493
-1.0984222 1.5604571 3.6712108
-1.5082684 0.89841849 4.9923639
-1.4669446 0.96909213 4.9874868
-1.4743482 0.95789611 4.9125123
-1.4770553 0.96086669 4.8511095
-1.5162379 0.99564868 4.83213
-1.4616451 0.9792006 4.7922091
-1.4735317 1.0504709 4.7783856
-1.3839006 1.0689737 4.6982756
-1.4155509 1.0407628 4.7139277
-1.4588647 1.0782551 4.6459579
-1.3755777 1.1019131 4.5945568
-1.416772 1.1381346 4.5834432
-1.353871 1.1410805 4.5489006
-1.3876351 1.1853393 4.5502605
-1.3763037 1.1677226 4.508914
-1.3481443 1.1707593 4.4456272
-1.381791 1.1832224 4.4337158
-1.3014652 1.2192996 4.3939137
-1.3107054 1.2337866 4.393702
-1.333899 1.2190566 4.3375649
-1.302938 1.2104079 4.2667274
-1.307864 1.2826923 4.2536798
-1.3269287 1.2723711 4.2484851
-1.287004 1.3006421 4.2181511
-1.2649326 1.29687 4.1781158
-1.2628024 1.3460463 4.1418324
-1.2576582 1.3623036 4.1078005
-1.2450178 1.3514514 4.0815811
-1.2584866 1.3671435 4.0871663
