# .PCD v0.7 - Point Cloud Data file format
VERSION 0.7
FIELDS x y z
SIZE 4 4 4
TYPE F F F
COUNT 1 1 1
WIDTH 1410
HEIGHT 1
VIEWPOINT 0 0 0 1 0 0 0
POINTS 1410
DATA ascii
-0.43882021 1.4217775 3.8923893
-0.43596745 1.433461 3.867085
-0.43315148 1.4449934 3.8421071
-0.43037155 1.4563773 3.8174486
-0.42762709 1.4676161 3.7931049
-0.42491737 1.4787124 3.7690694
-0.42224181 1.4896691 3.7453368
-0.42202911 1.5091761 3.7434502
-0.42331898 1.5341079 3.7548914
-0.42461666 1.5591923 3.766402
-0.4234283 1.5751534 3.7558613
-0.42083955 1.5857234 3.7328987
-0.37165293 -1.3445981 3.3502107
-0.34107542 -1.2173343 3.0745742
-0.3173539 -1.1171889 2.8607399
-0.33844015 -1.1749101 3.0508189
-0.33905727 -1.1605132 3.0563819
-0.33967668 -1.1460636 3.0619655
-0.34029832 -1.1315612 3.0675693
-0.3409223 -1.1170056 3.0731938
-0.3415485 -1.1023964 3.0788388
-0.34217706 -1.0877336 3.0845048
-0.34280792 -1.0730166 3.0901916
-0.3434411 -1.0582454 3.0958993
-0.34407663 -1.0434195 3.1016283
-0.34471455 -1.0285385 3.1073785
-0.3453548 -1.0136023 3.1131499
-0.34599742 -0.9986105 3.118943
-0.34664246 -0.98356277 3.1247575
-0.34728992 -0.96845883 3.1305938
-0.34793979 -0.95329845 3.136452
-0.3485921 -0.93808115 3.1423321
-0.34924686 -0.92280674 3.1482344
-0.34990406 -0.90747476 3.1541586
-0.35056376 -0.89208502 3.1601055
-0.35122597 -0.87663716 3.1660748
-0.35189065 -0.86113077 3.1720665
-0.35255787 -0.84556562 3.178081
-0.35322765 -0.82994133 3.1841185
-0.35389993 -0.81425756 3.1901789
-0.3545748 -0.79851401 3.1962624
-0.35525224 -0.78271019 3.202369
-0.3559323 -0.766846 3.2084992
-0.35661492 -0.75092083 3.2146528
-0.35730019 -0.73493451 3.22083
-0.35798809 -0.71888667 3.227031
-0.35867867 -0.70277691 3.2332561
-0.3593719 -0.68660486 3.2395051
-0.36006781 -0.67037016 3.2457783
-0.36076894 -0.65407705 3.2520986
-0.36150536 -0.63777775 3.2587368
-0.36224476 -0.62141174 3.2654021
-0.36298719 -0.60497862 3.2720945
-0.36373267 -0.58847803 3.2788146
-0.36448124 -0.57190961 3.2855625
-0.36523286 -0.5552727 3.2923379
-0.36598763 -0.53856719 3.2991416
-0.3667455 -0.52179235 3.3059733
-0.3675065 -0.50494796 3.3128333
-0.3682707 -0.4880335 3.3197219
-0.36903808 -0.47104859 3.3266394
-0.36980864 -0.45399272 3.3335855
-0.37058243 -0.43686548 3.3405609
-0.3713595 -0.41966641 3.3475654
-0.37213978 -0.40239504 3.3545992
-0.37292337 -0.38505095 3.3616629
-0.37371027 -0.3676337 3.3687563
-0.37450051 -0.35014275 3.3758798
-0.37529409 -0.33257768 3.3830333
-0.37609103 -0.31493801 3.3902173
-0.37689137 -0.29722327 3.3974319
-0.37769511 -0.27943298 3.4046772
-0.37850231 -0.26156664 3.4119534
-0.37931296 -0.24362378 3.419261
-0.3801271 -0.22560388 3.4265997
-0.38094473 -0.20750648 3.4339702
-0.38176587 -0.18933105 3.4413724
-0.38259059 -0.17107709 3.4488065
-0.38341886 -0.1527441 3.4562728
-0.38425073 -0.13433155 3.4637716
-0.38508621 -0.11583894 3.471303
-0.38592532 -0.097265735 3.4788671
-0.3867681 -0.078611404 3.486464
-0.38761452 -0.059875414 3.4940941
-0.38846472 -0.041057248 3.5017581
-0.38931862 -0.022156345 3.5094554
-0.3901763 -0.003172165 3.5171869
-0.39103776 0.015895844 3.5249524
-0.39190304 0.035048239 3.5327523
-0.39277214 0.054285582 3.5405867
-0.39364511 0.073608436 3.548456
-0.39452198 0.093017377 3.5563602
-0.39540276 0.11251298 3.5643001
-0.39628747 0.13209583 3.5722752
-0.39717615 0.15176649 3.580286
-0.39806885 0.1715256 3.5883331
-0.39896554 0.19137372 3.5964162
-0.39986628 0.21131146 3.6045358
-0.40077114 0.23133942 3.6126924
-0.40168005 0.25145826 3.6208858
-0.40259314 0.27166852 3.6291165
-0.40354073 0.2919929 3.6376586
-0.40449488 0.31241474 3.6462595
-0.40545353 0.3329334 3.6549013
-0.40641671 0.35354951 3.6635838
-0.40738454 0.37426385 3.672308
-0.40835693 0.39507702 3.6810734
-0.409334 0.41598985 3.6898811
-0.41031575 0.43700296 3.6987309
-0.41130224 0.45811713 3.7076235
-0.41229346 0.47933304 3.7165587
-0.41328949 0.50065148 3.7255373
-0.41429031 0.52207315 3.7345591
-0.41529602 0.54359889 3.7436249
-0.41630661 0.5652293 3.7527347
-0.41732216 0.58696532 3.7618892
-0.41834265 0.60880756 3.7710881
-0.41936815 0.63075697 3.7803323
-0.42039865 0.65281415 3.7896218
-0.42143425 0.67498004 3.7989571
-0.42247495 0.69725543 3.8083384
-0.42352083 0.71964109 3.8177662
-0.42457187 0.74213785 3.8272407
-0.42562819 0.76474661 3.8367627
-0.42668974 0.78746808 3.8463318
-0.42775661 0.81030315 3.8559489
-0.42882884 0.83325279 3.8656144
-0.42990643 0.8563177 3.8753283
-0.43098947 0.87949884 3.8850911
-0.43207797 0.90279704 3.8949032
-0.43317199 0.92621326 3.9047651
-0.43427154 0.94974834 3.9146769
-0.4353767 0.97340322 3.9246392
-0.43648753 0.99717879 3.9346526
-0.43760401 1.021076 3.9447169
-0.43872622 1.0450958 3.9548328
-0.4398542 1.069239 3.9650009
-0.440988 1.0935068 3.9752214
-0.44212765 1.1179 3.9854946
-0.44327322 1.1424196 3.9958212
-0.44442472 1.1670666 4.0062013
-0.44558224 1.1918418 4.0166354
-0.44674581 1.2167467 4.0271244
-0.44791549 1.2417819 4.0376682
-0.44909123 1.2669485 4.0482669
-0.45027325 1.2922475 4.0589218
-0.44809073 1.307842 4.039248
-0.44631332 1.3244257 4.0232258
-0.44200164 1.333192 3.9843588
-0.43901736 1.345606 3.9574573
-0.43607363 1.3578553 3.9309216
-0.43316892 1.3699408 3.9047375
-0.43204018 1.3874462 3.8945627
-0.43332604 1.4127133 3.9061537
-0.43087041 1.4257257 3.8840179
-0.42807528 1.4373585 3.8588216
-0.42531607 1.4488409 3.8339491
-0.42259216 1.4601761 3.8093948
-0.41990295 1.4713672 3.7851534
-0.41724774 1.4824167 3.7612183
-0.41462588 1.4933274 3.7375841
-0.4157005 1.5174758 3.7472711
-0.41697225 1.5424583 3.7587349
-0.41836873 1.5680324 3.7713232
-0.41580033 1.5786891 3.7481709
-0.4132641 1.5892189 3.7253084
-0.35512358 -1.3001631 3.2541218
-0.32667688 -1.1798165 2.9934547
-0.33352733 -1.1880188 3.0562277
-0.33413658 -1.1736202 3.0618105
-0.33474806 -1.159169 3.0674138
-0.33536178 -1.1446646 3.0730376
-0.33597779 -1.130107 3.0786822
-0.33659604 -1.1154959 3.0843475
-0.33721659 -1.100831 3.0900338
-0.33783942 -1.0861119 3.095741
-0.33846456 -1.0713382 3.1014693
-0.33909199 -1.0565097 3.1072187
-0.33972177 -1.0416262 3.1129897
-0.34035391 -1.0266874 3.118782
-0.3409884 -1.0116929 3.1245961
-0.34162524 -0.99664229 3.1304319
-0.34226447 -0.98153532 3.1362894
-0.34290612 -0.96637183 3.142169
-0.34355018 -0.95115131 3.1480706
-0.34419662 -0.93587345 3.1539943
-0.34484553 -0.92053807 3.1599405
-0.34549689 -0.90514475 3.1659091
-0.34615073 -0.88969314 3.1719003
-0.346807 -0.87418294 3.1779141
-0.34746581 -0.85861385 3.1839509
-0.3481271 -0.84298545 3.1900105
-0.34879094 -0.82729751 3.1960936
-0.34945729 -0.8115496 3.2021997
-0.35012618 -0.79574132 3.208329
-0.35079768 -0.77987254 3.2144821
-0.35147172 -0.76394266 3.2206585
-0.35214838 -0.74795157 3.2268591
-0.35282767 -0.73189873 3.2330835
-0.35350955 -0.71578377 3.2393317
-0.35419405 -0.69960642 3.2456043
-0.35488126 -0.68336642 3.2519014
-0.35557109 -0.66706312 3.2582226
-0.35626367 -0.65069646 3.2645688
-0.35695893 -0.63426584 3.2709396
-0.35765687 -0.61777097 3.2773352
-0.35835758 -0.60121149 3.283756
-0.359061 -0.58458692 3.2902019
-0.35976723 -0.56789702 3.2966733
-0.36047623 -0.55114132 3.30317
-0.36118802 -0.53431946 3.3096924
-0.36190265 -0.51743108 3.3162408
-0.36262009 -0.50047565 3.3228149
-0.36337176 -0.48349467 3.3297029
-0.36413124 -0.46644908 3.3366621
-0.36489382 -0.44933209 3.3436501
-0.36565968 -0.43214324 3.3506677
-0.3664287 -0.41488209 3.3577147
-0.367201 -0.3975482 3.3647914
-0.36797655 -0.38014105 3.3718979
-0.36875537 -0.36266026 3.3790348
-0.36953753 -0.34510529 3.3862019
-0.37032297 -0.3274757 3.3933992
-0.37111178 -0.309771 3.4006274
-0.37190396 -0.2919907 3.4078863
-0.37269953 -0.27413437 3.4151764
-0.3734985 -0.25620145 3.4224975
-0.3743009 -0.23819149 3.4298503
-0.37510678 -0.22010398 3.4372349
-0.37591612 -0.20193841 3.4446511
-0.37672895 -0.18369427 3.4520993
-0.3775453 -0.16537109 3.4595799
-0.37836525 -0.14696832 3.4670932
-0.37918869 -0.12848543 3.4746389
-0.38001579 -0.10992192 3.4822178
-0.38084647 -0.091277249 3.4898295
-0.38168079 -0.072550893 3.4974749
-0.3825188 -0.053742308 3.5051537
-0.38336048 -0.034850951 3.5128663
-0.38420585 -0.015876275 3.5206127
-0.38505498 0.0031822727 3.5283937
-0.38590783 0.022325246 3.5362086
-0.3867645 0.04155321 3.5440586
-0.38762495 0.060866728 3.5519433
-0.38848925 0.080266371 3.5598631
-0.38935742 0.099752724 3.5678184
-0.39022949 0.11932637 3.5758095
-0.39110544 0.13898788 3.5838363
-0.39198536 0.15873787 3.5918992
-0.39286923 0.17857693 3.5999985
-0.3937571 0.19850564 3.6081343
-0.39464903 0.21852466 3.6163073
-0.39554495 0.23863456 3.624517
-0.39644498 0.25883597 3.6327643
-0.39734912 0.27912953 3.6410491
-0.39825737 0.29951587 3.6493719
-0.3991698 0.31999561 3.6577327
-0.4000864 0.34056944 3.666132
-0.40100724 0.36123791 3.6745698
-0.4019323 0.38200179 3.6830466
-0.40286168 0.40286168 3.6915627
-0.40379536 0.42381826 3.7001183
-0.40473336 0.4448722 3.7087135
-0.40570384 0.4660565 3.7176065
-0.40668425 0.48734888 3.7265902
-0.4076694 0.50874442 3.7356174
-0.40865925 0.53024381 3.744688
-0.40965402 0.55184799 3.7538033
-0.41065356 0.5735575 3.7629626
-0.41165805 0.59537321 3.772167
-0.41266748 0.61729598 3.7814167
-0.41368183 0.63932645 3.7907116
-0.41470119 0.66146553 3.8000524
-0.41572559 0.68371397 3.8094392
-0.41675505 0.70607263 3.8188727
-0.41778964 0.72854227 3.8283529
-0.41882938 0.75112379 3.8378804
-0.41987425 0.77381784 3.847455
-0.4209244 0.79662555 3.8570778
-0.42197981 0.81954753 3.8667488
-0.42304051 0.84258479 3.8764684
-0.42410654 0.86573815 3.8862369
-0.42517799 0.88900852 3.896055
-0.42625487 0.91239679 3.9059227
-0.4273372 0.93590373 3.9158404
-0.42842504 0.95953041 3.9258087
-0.42951843 0.98327774 3.935828
-0.43061742 1.0071465 3.9458983
-0.43172204 1.0311378 3.9560204
-0.43283236 1.0552524 3.9661946
-0.4339484 1.0794915 3.9764211
-0.43507022 1.1038558 3.9867008
-0.43619785 1.1283464 3.9970336
-0.43733132 1.1529644 4.0074201
-0.43847066 1.1777105 4.0178604
-0.43961602 1.2025859 4.0283556
-0.44076741 1.2275919 4.0389061
-0.44192475 1.2527288 4.0495114
-0.44308826 1.2779983 4.060173
-0.44285083 1.299273 4.0579972
-0.43980601 1.3121485 4.0300965
-0.43989396 1.3342237 4.0309024
-0.433842 1.3373806 3.9754462
-0.43092066 1.3497432 3.9486771
-0.42803749 1.3619374 3.9222574
-0.42519253 1.3739693 3.8961883
-0.42543763 1.3958573 3.8984342
-0.42572856 1.4179224 3.9010999
-0.42295474 1.4296569 3.8756824
-0.42021668 1.441239 3.8505926
-0.41751385 1.4526721 3.8258257
-0.41484556 1.4639591 3.8013752
-0.41221115 1.4751028 3.7772353
-0.40960997 1.4861057 3.7533998
-0.40811285 1.5009109 3.739681
-0.40935892 1.5257922 3.7510991
-0.41061252 1.5508258 3.7625864
-0.4107202 1.5715988 3.7635732
-0.40820423 1.582213 3.7405183
-0.40571925 1.5926995 3.7177477
-0.33951598 -1.2582062 3.1633914
-0.31301859 -1.1442276 2.9165058
-0.32952124 -1.1879379 3.0702667
-0.33007503 -1.1732919 3.0754266
-0.33063069 -1.1585966 3.0806038
-0.33118823 -1.1438518 3.0857987
-0.33174762 -1.129057 3.0910108
-0.33230895 -1.1142123 3.0962408
-0.33287224 -1.0993176 3.1014893
-0.33347005 -1.0844783 3.1070592
-0.33408937 -1.0696474 3.1128297
-0.33471096 -1.0547614 3.1186213
-0.3353349 -1.03982 3.1244347
-0.33596119 -1.0248227 3.13027
-0.33658975 -1.0097693 3.1361268
-0.33722073 -0.99465948 3.1420057
-0.33785409 -0.9794929 3.1479068
-0.33848977 -0.96426916 3.1538298
-0.3391279 -0.94898814 3.1597755
-0.33976841 -0.93364936 3.1657434
-0.34041137 -0.91825247 3.1717339
-0.34105673 -0.90279728 3.1777472
-0.34170458 -0.88728333 3.1837833
-0.34235489 -0.87171036 3.1898425
-0.34300768 -0.85607797 3.1959248
-0.34366295 -0.84038585 3.2020302
-0.34432074 -0.82463372 3.208159
-0.34498104 -0.80882114 3.2143114
-0.34564391 -0.79294777 3.2204874
-0.34630927 -0.77701324 3.226687
-0.34697723 -0.76101732 3.2329106
-0.34764779 -0.74495959 3.2391584
-0.34832093 -0.72883958 3.2454302
-0.3489967 -0.71265715 3.2517266
-0.34967509 -0.69641173 3.2580473
-0.3503561 -0.680103 3.2643926
-0.35103977 -0.66373068 3.2707627
-0.35172614 -0.64729434 3.2771578
-0.3524152 -0.63079357 3.2835779
-0.35310695 -0.61422801 3.2900231
-0.3538014 -0.59759736 3.2964938
-0.35449862 -0.58090109 3.30299
-0.35519856 -0.56413889 3.3095117
-0.3559013 -0.54731041 3.3160594
-0.35660681 -0.53041518 3.3226328
-0.35731515 -0.51345283 3.3292325
-0.35802627 -0.49642298 3.3358583
-0.35874024 -0.47932521 3.3425107
-0.35945708 -0.46215907 3.3491895
-0.36017677 -0.44492424 3.3558953
-0.36089933 -0.42762023 3.3626277
-0.36162484 -0.41024667 3.3693874
-0.36235327 -0.3928031 3.3761744
-0.36308461 -0.37528914 3.3829887
-0.36381891 -0.35770431 3.3898304
-0.36455619 -0.34004822 3.3966999
-0.36532131 -0.32234234 3.4038289
-0.36610183 -0.30457214 3.4111013
-0.36688575 -0.28672585 3.4184053
-0.36767301 -0.26880297 3.4257405
-0.36846367 -0.25080299 3.4331071
-0.36925769 -0.23272544 3.4405055
-0.37005517 -0.21456981 3.4479358
-0.37085611 -0.19633558 3.4553986
-0.37166053 -0.17802227 3.4628935
-0.37246844 -0.15962933 3.4704211
-0.37327984 -0.14115624 3.4779813
-0.37409481 -0.12260251 3.4855747
-0.37491333 -0.10396757 3.4932013
-0.37573546 -0.085250907 3.5008612
-0.37656119 -0.066451974 3.5085549
-0.37739059 -0.047570243 3.5162826
-0.37822363 -0.028605148 3.5240443
-0.37906033 -0.0095561426 3.5318401
-0.37990075 0.0095773302 3.5396707
-0.38074496 0.028795836 3.5475364
-0.38159287 0.048099939 3.5554366
-0.38244456 0.06749022 3.5633724
-0.3833001 0.086967252 3.5713437
-0.38415945 0.10653161 3.5793505
-0.38502267 0.1261839 3.5873935
-0.38588977 0.1459247 3.5954723
-0.38676077 0.16575462 3.6035879
-0.38763571 0.18567425 3.6117401
-0.38851464 0.20568421 3.6199293
-0.38939753 0.22578512 3.6281555
-0.39028445 0.2459776 3.6364193
-0.39117542 0.26626226 3.6447208
-0.3920705 0.28663978 3.6530604
-0.39296964 0.30711073 3.6614382
-0.39387292 0.32767579 3.6698544
-0.3947804 0.34833565 3.6783097
-0.39569205 0.36909091 3.6868038
-0.39660791 0.38994223 3.6953371
-0.39752802 0.41089031 3.7039101
-0.39845243 0.43193582 3.7125232
-0.3993811 0.4530794 3.7211761
-0.40031418 0.47432184 3.7298698
-0.40125155 0.4956637 3.7386038
-0.4021934 0.51710576 3.7473791
-0.40313962 0.53864872 3.7561955
-0.40409034 0.56029332 3.7650537
-0.40504554 0.58204025 3.7739537
-0.40600526 0.60389018 3.7828958
-0.40696955 0.62584394 3.7918804
-0.4079642 0.64794314 3.8011479
-0.40897226 0.67016464 3.8105402
-0.40998527 0.69249612 3.819979
-0.41100335 0.71493858 3.8294647
-0.41202652 0.73749286 3.8389978
-0.41305473 0.76015955 3.8485782
-0.41408813 0.78293979 3.8582067
-0.41512674 0.80583423 3.8678837
-0.41617051 0.82884383 3.877609
-0.41721961 0.85196942 3.8873837
-0.41827396 0.87521189 3.8972075
-0.41933364 0.89857209 3.9070809
-0.42039871 0.92205095 3.9170046
-0.42146921 0.94564939 3.9269788
-0.42254516 0.96936834 3.9370039
-0.42362663 0.99320871 3.9470804
-0.42471367 1.0171714 3.9572086
-0.42580628 1.0412574 3.9673889
-0.42690456 1.0654677 3.9776218
-0.42800847 1.0898031 3.9879074
-0.42911813 1.1142647 3.9982464
-0.43023357 1.1388535 4.0086393
-0.43135479 1.1635705 4.0190864
-0.43248188 1.1884166 4.0295877
-0.43361488 1.213393 4.0401444
-0.43475384 1.2385005 4.0507565
-0.43589878 1.2637402 4.0614243
-0.43704981 1.2891133 4.0721488
-0.43454027 1.3036208 4.0487666
-0.43184847 1.3173193 4.0236859
-0.43313473 1.3430817 4.0356708
-0.42572093 1.3415575 3.9665935
-0.42285979 1.3538619 3.9399352
-0.42003667 1.3660016 3.9136314
-0.41757998 1.3790666 3.8907413
-0.41882169 1.4042845 3.9023108
-0.41778922 1.4218878 3.8926911
-0.41507283 1.4335709 3.8673813
-0.41239151 1.445103 3.8423986
-0.40974462 1.4564872 3.8177366
-0.40713149 1.4677261 3.7933891
-0.40455145 1.4788226 3.7693501
-0.40200391 1.4897792 3.7456138
-0.4017764 1.5091938 3.743494
-0.40300432 1.5341257 3.7549348
-0.40423977 1.5592105 3.7664459
-0.40310371 1.5751531 3.7558608
-0.40063918 1.5857232 3.732898
-0.35390055 -1.346032 3.3537836
-0.3247551 -1.2185255 3.0775831
-0.3026146 -1.1199327 2.8677657
-0.32567433 -1.188572 3.0862942
-0.32622451 -1.1738507 3.0915082
-0.32677656 -1.1590793 3.0967398
-0.3273305 -1.1442579 3.101989
-0.32788628 -1.1293861 3.1072562
-0.32844397 -1.1144638 3.1125412
-0.32900357 -1.0994906 3.1178443
-0.32956511 -1.0844663 3.1231656
-0.33012852 -1.0693907 3.128505
-0.33069387 -1.0542634 3.1338625
-0.33126116 -1.0390842 3.1392386
-0.33183041 -1.0238528 3.1446331
-0.3324016 -1.008569 3.1500461
-0.33297479 -0.99323249 3.155478
-0.33354998 -0.97784311 3.160929
-0.33412722 -0.96240067 3.1663992
-0.33470646 -0.9469046 3.1718884
-0.33530709 -0.93140858 3.1775804
-0.33594397 -0.91594982 3.1836159
-0.33658329 -0.90043223 3.1896744
-0.33722502 -0.88485545 3.195756
-0.33786923 -0.86921912 3.2018607
-0.33851591 -0.85352296 3.207989
-0.33916503 -0.83776665 3.2141407
-0.33981666 -0.82194972 3.2203159
-0.34047082 -0.80607194 3.2265151
-0.34112749 -0.79013288 3.232738
-0.34178668 -0.77413225 3.2389851
-0.34244844 -0.75806963 3.2452562
-0.34311277 -0.74194473 3.2515519
-0.34377968 -0.72575706 3.2578719
-0.34444916 -0.70950639 3.2642164
-0.34512129 -0.69319236 3.270586
-0.34579605 -0.67681444 3.2769802
-0.34647343 -0.66037244 3.2833996
-0.34715348 -0.64386588 3.2898443
-0.34783623 -0.62729436 3.2963142
-0.34852162 -0.61065751 3.3028095
-0.34920976 -0.59395504 3.3093307
-0.34990057 -0.57718641 3.3158774
-0.35059419 -0.56035137 3.3224504
-0.35129052 -0.54344946 3.3290493
-0.35198963 -0.5264802 3.3356745
-0.35269153 -0.50944334 3.3423262
-0.35339621 -0.49233833 3.3490043
-0.35410374 -0.47516486 3.3557093
-0.35481411 -0.45792249 3.3624411
-0.35552734 -0.4406108 3.3692
-0.3562434 -0.42322937 3.3759861
-0.35696241 -0.40577781 3.3827999
-0.35768428 -0.3882556 3.3896408
-0.35840911 -0.37066242 3.3965096
-0.35913688 -0.35299778 3.4034064
-0.35986757 -0.33526126 3.410331
-0.36060128 -0.3174524 3.417284
-0.36133799 -0.2995708 3.4242654
-0.36207768 -0.28161597 3.4312754
-0.36282045 -0.2635875 3.4383142
-0.36356625 -0.2454849 3.4453819
-0.36431512 -0.22730772 3.4524786
-0.36506709 -0.20905551 3.4596047
-0.36582214 -0.19072779 3.4667602
-0.36658034 -0.17232409 3.4739454
-0.36735961 -0.15385146 3.4813302
-0.36816242 -0.13530755 3.4889381
-0.36896876 -0.11668243 3.4965794
-0.36977863 -0.097975537 3.5042543
-0.37059206 -0.079186335 3.5119629
-0.37140909 -0.060314298 3.5197055
-0.37222973 -0.041358858 3.5274823
-0.373054 -0.02231947 3.5352936
-0.37388191 -0.0031955717 3.5431395
-0.37471351 0.016013399 3.5510204
-0.37554884 0.035308011 3.5589364
-0.37638786 0.054688837 3.5668876
-0.37723067 0.074156463 3.5748746
-0.37807727 0.093711458 3.5828974
-0.37892768 0.11335444 3.5909564
-0.37978193 0.13308597 3.5990517
-0.38064 0.15290667 3.6071835
-0.38150197 0.17281714 3.6153522
-0.38236788 0.19281799 3.6235578
-0.38323769 0.21290983 3.6318009
-0.38411149 0.23309329 3.6400814
-0.38498929 0.25336903 3.6484001
-0.38587108 0.27373761 3.6567564
-0.3867569 0.29419971 3.6651511
-0.38764685 0.31475598 3.6735847
-0.38854086 0.33540708 3.6820569
-0.38943902 0.35615364 3.6905684
-0.39034134 0.37699634 3.6991193
-0.39124784 0.39793584 3.70771
-0.39215857 0.41897282 3.7163405
-0.39307356 0.440108 3.7250116
-0.39399281 0.46134201 3.7337229
-0.39491636 0.48267555 3.7424753
-0.39584428 0.50410938 3.7512686
-0.39677656 0.52564412 3.7601035
-0.39771321 0.54728061 3.76898
-0.39865434 0.56901944 3.7778986
-0.39959991 0.59086144 3.7868595
-0.40054998 0.61280721 3.7958629
-0.40150458 0.63485765 3.8049092
-0.40246373 0.65701348 3.8139989
-0.40342748 0.67927533 3.823132
-0.40439588 0.70164412 3.832309
-0.40536892 0.72412056 3.8415303
-0.40634668 0.74670541 3.850796
-0.40732914 0.76939946 3.8601065
-0.40831637 0.79220355 3.869462
-0.4093084 0.81511843 3.8788631
-0.41032848 0.83819234 3.88853
-0.41136575 0.86140686 3.8983598
-0.41240823 0.88473904 3.9082391
-0.41345602 0.90818977 3.9181688
-0.41450921 0.93176001 3.9281492
-0.41556773 0.95545059 3.9381804
-0.41663167 0.97926247 3.9482632
-0.4177011 1.0031966 3.9583976
-0.41877601 1.027254 3.9685841
-0.41985643 1.0514354 3.9788229
-0.42094246 1.0757418 3.9891148
-0.42203414 1.1001744 3.9994602
-0.4231315 1.1247342 4.0098596
-0.42423457 1.1494218 4.0203128
-0.42534339 1.1742386 4.0308208
-0.42645803 1.1991854 4.0413837
-0.42757854 1.2242633 4.0520024
-0.42870495 1.2494733 4.0626769
-0.42983729 1.2748165 4.0734076
-0.42922485 1.2950118 4.0676041
-0.42626742 1.3079487 4.0395775
-0.42471701 1.3249718 4.0248847
-0.42047301 1.3332947 3.9846661
-0.41763514 1.3457131 3.9577725
-0.41483444 1.3579623 3.9312313
-0.41207099 1.3700479 3.9050431
-0.41096967 1.3874618 3.8946066
-0.41219255 1.4127283 3.9061952
-0.40988392 1.4258355 3.8843172
-0.4072246 1.4374681 3.8591158
-0.40459958 1.4489506 3.8342395
-0.40200818 1.4602861 3.8096817
-0.39944974 1.4714773 3.7854364
-0.39692366 1.4825269 3.7614977
-0.39442936 1.4934376 3.73786
-0.39542702 1.5174934 3.7473145
-0.39663672 1.5424762 3.7587786
-0.39796045 1.5680323 3.771323
-0.39551762 1.5786899 3.748173
-0.39310479 1.5892185 3.7253077
-0.33786377 -1.3015101 3.2574928
-0.31077385 -1.1809406 2.9963069
-0.32124239 -1.2039607 3.0972388
-0.32178706 -1.189213 3.1024899
-0.32233351 -1.1744152 3.1077588
-0.32288185 -1.159567 3.1130455
-0.32343206 -1.1446682 3.1183503
-0.32398415 -1.1297187 3.1236732
-0.32453811 -1.1147178 3.1290143
-0.32509398 -1.0996658 3.1343737
-0.32565176 -1.0845619 3.1397514
-0.32621148 -1.0694063 3.1451478
-0.32677308 -1.0541984 3.1505625
-0.32733664 -1.038938 3.1559961
-0.32790217 -1.023625 3.1614485
-0.32846963 -1.0082589 3.1669197
-0.32903907 -0.99283957 3.1724098
-0.32961047 -0.97736669 3.1779189
-0.33018386 -0.96183997 3.1834474
-0.33075929 -0.94625914 3.1889951
-0.33133668 -0.93062389 3.1945622
-0.33191609 -0.91493392 3.2001486
-0.33249754 -0.899189 3.2057545
-0.33308107 -0.88338888 3.2113805
-0.33366659 -0.86753321 3.217026
-0.33425424 -0.85162163 3.2226915
-0.33484399 -0.8356542 3.2283778
-0.33543587 -0.81963021 3.2340841
-0.33602983 -0.80354953 3.2398107
-0.3366259 -0.78741187 3.2455578
-0.33722946 -0.77122915 3.2513771
-0.3378849 -0.7550993 3.2576964
-0.33854291 -0.73890668 3.2640405
-0.33920345 -0.72265083 3.2704091
-0.33986661 -0.70633143 3.2768028
-0.34053233 -0.68994814 3.2832215
-0.34120071 -0.67350048 3.2896655
-0.34187168 -0.6569882 3.2961347
-0.3425453 -0.64041078 3.3026292
-0.34322158 -0.62376791 3.3091497
-0.34390053 -0.60705918 3.3156958
-0.3445822 -0.59028429 3.322268
-0.34526655 -0.5734427 3.3288662
-0.34595364 -0.55653411 3.3354907
-0.34664348 -0.53955811 3.3421416
-0.34733605 -0.52251422 3.348819
-0.3480314 -0.50540215 3.3555233
-0.34872955 -0.48822138 3.3622544
-0.34943047 -0.47097152 3.3690124
-0.35013425 -0.4536522 3.3757977
-0.35084087 -0.436263 3.3826106
-0.35155034 -0.41880345 3.389451
-0.35226268 -0.40127313 3.3963189
-0.35297793 -0.38367167 3.4032149
-0.35369608 -0.36599854 3.4101388
-0.35441715 -0.34825337 3.4170911
-0.35514119 -0.33043572 3.4240718
-0.35586819 -0.31254509 3.4310811
-0.35659814 -0.29458109 3.4381189
-0.35733113 -0.2765432 3.4451859
-0.35806713 -0.25843105 3.452282
-0.35880613 -0.24024411 3.4594071
-0.35954824 -0.22198194 3.466562
-0.36029336 -0.20364408 3.4737463
-0.36104164 -0.18523006 3.4809606
-0.36179301 -0.16673939 3.488205
-0.36254749 -0.14817159 3.4954793
-0.36330515 -0.12952618 3.5027843
-0.36406597 -0.11080269 3.5101197
-0.36483002 -0.092000611 3.5174861
-0.36559725 -0.073119447 3.5248833
-0.3663677 -0.054158706 3.5323117
-0.36714146 -0.035117876 3.5397716
-0.36791843 -0.015996454 3.5472629
-0.36869872 0.0032060759 3.554786
-0.36949292 0.022490872 3.562443
-0.37031922 0.041862175 3.57041
-0.37114927 0.061320312 3.5784128
-0.37198305 0.080865882 3.5864515
-0.37282056 0.10049945 3.5945263
-0.37366188 0.12022164 3.6026378
-0.37450695 0.14003304 3.6107857
-0.3753559 0.15993425 3.6189709
-0.37620869 0.1799259 3.627193
-0.37706536 0.20000859 3.6354525
-0.37792596 0.22018296 3.64375
-0.3787905 0.24044962 3.6520853
-0.379659 0.26080921 3.6604588
-0.38053146 0.2812624 3.6688707
-0.38140798 0.30180979 3.6773214
-0.38228855 0.32245207 3.6858113
-0.38317314 0.34318987 3.6943402
-0.3840619 0.36402386 3.702909
-0.38495475 0.38495475 3.7115176
-0.38585174 0.40598315 3.7201657
-0.38675293 0.42710978 3.7288547
-0.38765836 0.44833532 3.7375841
-0.38856801 0.46966049 3.7463546
-0.38948196 0.49108595 3.7551663
-0.3904002 0.51261246 3.7640195
-0.39132279 0.53424066 3.7729144
-0.39224976 0.55597138 3.7818518
-0.39318112 0.57780528 3.7908313
-0.39411691 0.59974313 3.7998538
-0.39505717 0.62178564 3.8089192
-0.39600191 0.64393353 3.818028
-0.3969512 0.66618764 3.8271804
-0.39790505 0.68854874 3.8363769
-0.39886349 0.71101755 3.8456178
-0.39982659 0.73359483 3.8549032
-0.4007943 0.75628144 3.8642335
-0.40176672 0.77907807 3.8736091
-0.40274391 0.80198568 3.8830304
-0.4037258 0.82500494 3.8924975
-0.40471253 0.84813672 3.9020109
-0.40570411 0.87138182 3.911571
-0.40670052 0.89474118 3.9211781
-0.40770188 0.91821551 3.9308324
-0.40870816 0.94180572 3.9405344
-0.40971941 0.96551269 3.9502845
-0.4107357 0.98933727 3.9600828
-0.41175702 1.0132803 3.9699299
-0.41280401 1.0373944 3.9800243
-0.41387212 1.061672 3.9903226
-0.41494578 1.0860755 4.0006742
-0.4160251 1.1106061 4.0110803
-0.41710994 1.1352644 4.0215397
-0.41820052 1.1600518 4.0320544
-0.41929677 1.1849692 4.042624
-0.42039877 1.2100173 4.0532489
-0.42150661 1.2351977 4.06393
-0.4226203 1.2605109 4.0746675
-0.42373991 1.2859585 4.0854621
-0.42092574 1.2993795 4.0583296
-0.41803145 1.3122553 4.0304246
-0.417018 1.3308313 4.0206532
-0.41236216 1.3374877 3.9757643
-0.40958518 1.3498503 3.9489903
-0.40684447 1.3620446 3.9225659
-0.40414017 1.3740766 3.8964925
-0.40434587 1.3958722 3.8984756
-0.40464938 1.4180322 3.901402
-0.40201256 1.4297664 3.8759792
-0.39940986 1.4413487 3.8508856
-0.39684066 1.4527819 3.8261147
-0.39430431 1.464069 3.8016605
-0.39180011 1.4752126 3.7775166
-0.38932753 1.4862156 3.7536774
-0.38788038 1.5009285 3.7397249
-0.38906461 1.5258099 3.7511425
-0.39025611 1.5508438 3.7626302
-0.39035386 1.5715986 3.7635727
-0.38796261 1.5822128 3.7405176
-0.38560143 1.5927016 3.7177525
-0.32272217 -1.2594732 3.1665766
-0.3030096 -1.1664529 2.9731553
-0.31770563 -1.2061568 3.1173542
-0.31811631 -1.1908247 3.1213837
-0.31852803 -1.1754529 3.1254234
-0.31894594 -1.1600599 3.129524
-0.31949231 -1.1450831 3.1348851
-0.32004055 -1.1300547 3.1402645
-0.3205907 -1.1149747 3.1456625
-0.32114273 -1.0998428 3.1510792
-0.3216967 -1.0846587 3.1565146
-0.32225254 -1.0694221 3.1619687
-0.32281032 -1.0541328 3.1674416
-0.32337001 -1.0387905 3.1729336
-0.32393169 -1.0233948 3.1784446
-0.32449532 -1.0079457 3.183975
-0.32506087 -0.99244249 3.1895244
-0.32562843 -0.97688526 3.1950932
-0.32619798 -0.96127367 3.2006817
-0.3267695 -0.9456073 3.2062895
-0.32734305 -0.92988598 3.2119172
-0.32791859 -0.91410935 3.2175646
-0.32849619 -0.89827716 3.2232318
-0.32907581 -0.88238913 3.2289193
-0.32965747 -0.86644489 3.2346265
-0.3302412 -0.8504442 3.2403543
-0.330827 -0.83438671 3.2461021
-0.33141491 -0.81827217 3.2518706
-0.33200487 -0.80210024 3.2576594
-0.33259696 -0.78587067 3.263469
-0.33319116 -0.76958311 3.2692993
-0.33378747 -0.75323725 3.2751505
-0.33438593 -0.73683274 3.2810225
-0.33498657 -0.72036934 3.286916
-0.33558941 -0.70384681 3.2928312
-0.33619443 -0.68726474 3.2987678
-0.33680165 -0.67062277 3.3047259
-0.33741108 -0.65392059 3.3107057
-0.33802274 -0.63715786 3.3167071
-0.33863658 -0.62033427 3.3227303
-0.33925268 -0.60344946 3.3287756
-0.33991832 -0.58658475 3.3353069
-0.34059605 -0.56966949 3.3419569
-0.34127653 -0.55268675 3.3486338
-0.34195971 -0.53563601 3.3553371
-0.34264565 -0.51851684 3.3620675
-0.34333432 -0.50132889 3.368825
-0.34402579 -0.48407167 3.3756096
-0.34472001 -0.46674481 3.3824215
-0.34541708 -0.44934785 3.389261
-0.34611696 -0.43188044 3.3961284
-0.34681967 -0.41434208 3.4030235
-0.34752524 -0.39673236 3.4099467
-0.34823373 -0.37905088 3.4168983
-0.34894505 -0.3612971 3.423878
-0.34965932 -0.34347066 3.4308865
-0.35037652 -0.32557112 3.4379237
-0.35109666 -0.30759797 3.4449897
-0.35181978 -0.28955081 3.452085
-0.35254589 -0.27142912 3.4592094
-0.35327497 -0.25323251 3.4663634
-0.3540071 -0.23496045 3.473547
-0.35474223 -0.21661252 3.4807603
-0.35548046 -0.19818823 3.488004
-0.35622177 -0.17968708 3.4952776
-0.35696617 -0.16110861 3.5025816
-0.35771367 -0.14245234 3.5099163
-0.35846433 -0.12371778 3.5172818
-0.35921815 -0.10490441 3.5246782
-0.3599751 -0.086011752 3.5321057
-0.3607353 -0.067039303 3.5395648
-0.36149868 -0.047986552 3.5470552
-0.36226535 -0.028852992 3.5545776
-0.36303523 -0.0096381037 3.5621319
-0.36380839 0.00965863 3.5697184
-0.36458486 0.029037733 3.577337
-0.36536467 0.048499737 3.5849886
-0.36614782 0.068045169 3.5926728
-0.3669343 0.087674566 3.60039
-0.36772418 0.10738847 3.6081402
-0.36851749 0.12718745 3.6159241
-0.36931419 0.14707203 3.6237416
-0.37011439 0.16704278 3.6315932
-0.37091804 0.18710025 3.6394787
-0.37172797 0.20724656 3.6474257
-0.37257919 0.2275041 3.6557779
-0.37343431 0.24785462 3.6641684
-0.37429333 0.26829877 3.6725974
-0.37515634 0.28883719 3.6810653
-0.37602335 0.30947053 3.6895723
-0.37689438 0.33019948 3.6981189
-0.37776944 0.35102469 3.7067051
-0.37864858 0.37194684 3.7153313
-0.3795318 0.39296657 3.7239976
-0.38041919 0.41408458 3.7327046
-0.3813107 0.43530157 3.7414522
-0.38220641 0.45661828 3.750241
-0.38310635 0.47803536 3.7590714
-0.38401052 0.4995535 3.7679431
-0.38491899 0.52117348 3.7768571
-0.38583174 0.54289597 3.7858131
-0.38674882 0.56472176 3.7948117
-0.38767028 0.5866515 3.803853
-0.38859612 0.60868597 3.8129375
-0.38952643 0.63082594 3.8220656
-0.39046118 0.65307224 3.8312376
-0.39140043 0.67542553 3.8404536
-0.39234418 0.69788659 3.8497138
-0.39329255 0.72045624 3.859019
-0.39424551 0.74313533 3.8683696
-0.39520305 0.76592451 3.8777652
-0.39616528 0.78882462 3.8872066
-0.39713219 0.8118366 3.8966942
-0.39810386 0.83496124 3.9062283
-0.39908028 0.85819918 3.9158089
-0.40006152 0.8815515 3.925437
-0.40104759 0.90501887 3.9351122
-0.40203851 0.92860228 3.9448354
-0.40303436 0.95230246 3.9546068
-0.40403515 0.97612029 3.9644265
-0.40504095 1.0000569 3.9742954
-0.40605173 1.0241128 3.9842134
-0.40706757 1.0482891 3.9941809
-0.40808854 1.0725867 4.0041986
-0.4091146 1.0970064 4.0142665
-0.41014582 1.1215492 4.024385
-0.41118231 1.1462162 4.034555
-0.41222402 1.1710081 4.0447764
-0.41327104 1.195926 4.0550499
-0.41432336 1.2209706 4.0653753
-0.41539881 1.2461964 4.0759277
-0.41649964 1.271614 4.086729
-0.4155342 1.2907301 4.0772562
-0.41266441 1.3037274 4.0490975
-0.40983462 1.3165483 4.0213313
-0.40704161 1.3291889 3.993926
-0.40428826 1.3416646 3.9669101
-0.40157086 1.353969 3.9402466
-0.39888966 1.3661088 3.9139385
-0.39653012 1.3790826 3.8907864
-0.39770886 1.4042994 3.9023523
-0.39675474 1.4219971 3.8929906
-0.3941749 1.4336804 3.867677
-0.39162832 1.4452125 3.8426898
-0.38911447 1.4565966 3.8180234
-0.38663265 1.4678354 3.7936716
-0.3841823 1.4789319 3.7696288
-0.38176313 1.4898897 3.7458916
-0.38152322 1.5092113 3.7435377
-0.38268924 1.5341436 3.7549787
-0.3838625 1.559229 3.7664907
-0.38277912 1.575153 3.7558606
-0.38043883 1.5857229 3.7328975
-0.33611026 -1.3474691 3.3573642
-0.30840281 -1.2197192 3.0805979
-0.31477973 -1.2279246 3.1442962
-0.31519014 -1.2124882 3.1483955
-0.31560159 -1.1970115 3.1525056
-0.31601417 -1.1814944 3.1566267
-0.31642777 -1.1659366 3.1607583
-0.3168425 -1.1503381 3.1649008
-0.31725827 -1.1346985 3.169054
-0.31767517 -1.119018 3.1732185
-0.31809318 -1.1032962 3.1773937
-0.31851226 -1.0875328 3.1815798
-0.31893244 -1.071728 3.1857772
-0.31935376 -1.0558814 3.1899855
-0.31977618 -1.0399928 3.194205
-0.32019973 -1.0240622 3.1984358
-0.32062456 -1.0080898 3.2026794
-0.32105067 -0.9920755 3.2069359
-0.32160312 -0.97639865 3.2124541
-0.32216868 -0.96070117 3.2181034
-0.3227362 -0.94494838 3.2237725
-0.32330579 -0.92914003 3.2294619
-0.32387733 -0.91327572 3.2351711
-0.32445094 -0.89735532 3.2409008
-0.32502657 -0.88137829 3.2466505
-0.32560423 -0.86534458 3.2524209
-0.32618397 -0.84925377 3.2582119
-0.32676578 -0.83310556 3.2640233
-0.32734963 -0.81689954 3.2698555
-0.32793561 -0.80063558 3.2757087
-0.3285237 -0.78431338 3.2815831
-0.32911387 -0.76793236 3.2874782
-0.32970619 -0.7514925 3.2933948
-0.33030063 -0.73499334 3.2993326
-0.33089724 -0.71843451 3.3052919
-0.33149597 -0.70181578 3.3112726
-0.3320969 -0.68513685 3.3172753
-0.33270001 -0.66839731 3.3232996
-0.3333053 -0.65159684 3.3293457
-0.33391282 -0.63473517 3.3354142
-0.33452255 -0.61781186 3.3415046
-0.33513451 -0.60082668 3.3476174
-0.33574867 -0.58377922 3.3537524
-0.33636516 -0.56666923 3.3599105
-0.33698398 -0.54949641 3.3660917
-0.33760509 -0.5322603 3.3722959
-0.33822849 -0.51496047 3.3785229
-0.33885419 -0.49759671 3.384773
-0.33948219 -0.48016852 3.391046
-0.34011257 -0.46267563 3.3973427
-0.34074524 -0.44511765 3.4036624
-0.3413803 -0.42749426 3.410006
-0.34205097 -0.40984488 3.4167054
-0.34274966 -0.39215502 3.4236844
-0.3434512 -0.37439275 3.430692
-0.34415564 -0.35655764 3.4377284
-0.34486294 -0.33864918 3.4447937
-0.34557319 -0.320667 3.4518881
-0.34628633 -0.30261058 3.4590118
-0.34700245 -0.28447947 3.4661648
-0.34772152 -0.26627323 3.4733477
-0.3484436 -0.24799138 3.4805603
-0.34916866 -0.22963345 3.487803
-0.34989673 -0.21119894 3.4950757
-0.35062787 -0.19268739 3.5023789
-0.35136211 -0.17409834 3.5097129
-0.35209936 -0.15543126 3.5170774
-0.35283974 -0.13668567 3.524473
-0.35358325 -0.11786108 3.5318997
-0.35432988 -0.098956987 3.5393577
-0.35507968 -0.0799729 3.5468473
-0.35583267 -0.060908295 3.554369
-0.35658884 -0.041762657 3.5619223
-0.35734823 -0.022535475 3.5695078
-0.35811087 -0.0032262243 3.5771258
-0.35887679 0.016165622 3.5847764
-0.35964599 0.035640594 3.5924597
-0.3604185 0.055199228 3.6001761
-0.36119428 0.074842058 3.6079254
-0.36197343 0.094569638 3.6157084
-0.36275598 0.11438252 3.6235251
-0.3635419 0.13428125 3.6313756
-0.36433125 0.15426637 3.6392601
-0.36512399 0.17433849 3.6471789
-0.36592022 0.19449814 3.6551323
-0.36671993 0.21474591 3.6631205
-0.36752316 0.23508237 3.6711438
-0.36832988 0.25550812 3.6792021
-0.36914018 0.27602375 3.6872962
-0.36995402 0.29662982 3.6954255
-0.3707715 0.31732696 3.7035911
-0.37159258 0.33811578 3.7117927
-0.3724173 0.35899687 3.7200308
-0.37324569 0.37997082 3.7283053
-0.37407777 0.40103835 3.7366171
-0.37494984 0.42224079 3.7453279
-0.37583151 0.44354889 3.7541349
-0.37671736 0.46495748 3.7629836
-0.37760738 0.48646718 3.771874
-0.37850165 0.50807875 3.7808065
-0.37940013 0.52979296 3.7897813
-0.38030291 0.55161053 3.798799
-0.38120997 0.5735321 3.8078597
-0.38212138 0.59555852 3.8169637
-0.38303715 0.6176905 3.8261111
-0.38395733 0.63992888 3.8353028
-0.38488194 0.6622743 3.8445385
-0.385811 0.68472767 3.8538189
-0.38674456 0.70728958 3.8631439
-0.38768262 0.72996098 3.8725142
-0.38862526 0.75274265 3.8819301
-0.3895725 0.77563536 3.891392
-0.39052439 0.79863995 3.9009001
-0.39148086 0.82175714 3.9104545
-0.39244211 0.84498793 3.9200561
-0.39340806 0.8683331 3.9297049
-0.39437878 0.89179349 3.9394014
-0.3953543 0.91536987 3.9491456
-0.39633465 0.93906319 3.9589384
-0.39731991 0.96287435 3.9687798
-0.39831007 0.98680419 3.9786704
-0.39930516 1.0108536 3.9886103
-0.40030521 1.0350235 3.9985998
-0.40131035 1.0593147 4.0086398
-0.4023205 1.0837282 4.0187302
-0.40333572 1.1082648 4.0288711
-0.40435615 1.1329257 4.0390639
-0.40538171 1.1577117 4.0493083
-0.40641251 1.1826237 4.0596046
-0.40744853 1.2076627 4.0699534
-0.40848985 1.2328298 4.0803552
-0.40953654 1.2581258 4.0908103
-0.41009215 1.2819998 4.0963602
-0.40724674 1.295118 4.0679379
-0.40444058 1.3080556 4.0399075
-0.4016726 1.3208153 4.0122585
-0.39894181 1.3334001 3.9849808
-0.39624944 1.3458202 3.9580872
-0.39359188 1.3580693 3.9315412
-0.39096981 1.3701555 3.9053495
-0.38989851 1.3874767 3.8946483
-0.39105868 1.4127436 3.9062374
-0.38889396 1.4259444 3.884614
-0.38637057 1.437577 3.8594084
-0.38387972 1.4490595 3.8345275
-0.38142079 1.460395 3.8099656
-0.37899315 1.4715861 3.7857163
-0.37659654 1.4826368 3.7617767
-0.37423012 1.493549 3.7381387
-0.37515306 1.5175111 3.7473581
-0.37630081 1.5424943 3.7588227
-0.37755248 1.5680332 3.7713253
-0.3752346 1.5786897 3.7481725
-0.37294552 1.5892183 3.725307
-0.32056814 -1.3028595 3.2608705
-0.31700778 -1.125523 3.2246537
-0.31567252 -1.1034058 3.2110713
-0.31609282 -1.0874753 3.2153466
-0.31651425 -1.0715024 3.2196336
-0.31693682 -1.0554869 3.223932
-0.31736052 -1.0394285 3.2282419
-0.31778535 -1.0233271 3.2325633
-0.31821132 -1.0071826 3.2368963
-0.31863841 -0.99099469 3.2412407
-0.31906667 -0.97476333 3.2455971
-0.3194961 -0.95848829 3.2499652
-0.31992665 -0.94216931 3.2543449
-0.3203584 -0.92580634 3.2587366
-0.32079127 -0.90939909 3.26314
-0.32122535 -0.89294749 3.2675555
-0.32166058 -0.87645125 3.2719827
-0.322097 -0.85991037 3.2764223
-0.32253492 -0.84332526 3.2808766
-0.32297406 -0.82669508 3.2853436
-0.32343292 -0.81006593 3.2900112
-0.32401544 -0.79368919 3.2959368
-0.3246001 -0.77725345 3.3018839
-0.32518682 -0.76075816 3.3078523
-0.32577571 -0.74420321 3.3138425
-0.32636672 -0.72758818 3.3198543
-0.32695985 -0.7109127 3.3258879
-0.32755521 -0.69417661 3.3319438
-0.32815269 -0.67737943 3.3380215
-0.32875237 -0.66052079 3.3441215
-0.32935423 -0.64360046 3.3502438
-0.32995832 -0.62661809 3.3563886
-0.33056462 -0.60957325 3.362556
-0.33117315 -0.5924657 3.368746
-0.33178392 -0.57529503 3.374959
-0.33239695 -0.55806094 3.3811948
-0.33301225 -0.54076302 3.3874538
-0.33362982 -0.5234009 3.3937359
-0.33424971 -0.50597429 3.4000413
-0.33487189 -0.48848286 3.4063704
-0.33549643 -0.47092617 3.4127231
-0.33612326 -0.45330384 3.4190993
-0.33675241 -0.43561551 3.4254994
-0.33738402 -0.41786095 3.4319241
-0.33801803 -0.40003967 3.4383733
-0.33865446 -0.38215134 3.4448471
-0.33929324 -0.3641955 3.451345
-0.33993447 -0.3461718 3.4578676
-0.34057814 -0.32807985 3.4644151
-0.34122422 -0.30991927 3.4709873
-0.34187278 -0.2916896 3.4775844
-0.34252378 -0.27339056 3.4842067
-0.34317729 -0.25502166 3.4908543
-0.34383333 -0.23658256 3.4975274
-0.34453031 -0.21809717 3.5046172
-0.34525219 -0.19954942 3.5119603
-0.3459771 -0.1809238 3.5193343
-0.34670511 -0.16221982 3.5267396
-0.34743613 -0.14343694 3.5341759
-0.34817028 -0.12457468 3.5416436
-0.3489075 -0.10563255 3.5491428
-0.34964788 -0.086610027 3.556674
-0.35039139 -0.067506596 3.5642371
-0.35113809 -0.048321754 3.5718327
-0.35188797 -0.02905497 3.5794606
-0.35264108 -0.0097057177 3.5871212
-0.35339737 0.0097265337 3.5948145
-0.35415694 0.029242316 3.602541
-0.35491979 0.048842173 3.6103008
-0.35568592 0.068526648 3.618094
-0.35645539 0.088296287 3.625921
-0.35722816 0.10815164 3.6337819
-0.3580043 0.12809329 3.6416769
-0.35878384 0.14812177 3.6496065
-0.35956678 0.16823767 3.6575706
-0.36035311 0.18844153 3.6655693
-0.3611429 0.20873398 3.6736033
-0.36193618 0.22911556 3.6816726
-0.36273292 0.24958687 3.6897771
-0.3635332 0.27014852 3.6979177
-0.36433703 0.29080111 3.7060943
-0.36514437 0.31154519 3.7143068
-0.36595532 0.33238146 3.7225561
-0.36676991 0.35331047 3.7308421
-0.36758813 0.37433285 3.7391651
-0.36840996 0.39544922 3.747525
-0.36923555 0.41666028 3.7559228
-0.3700648 0.43796659 3.764358
-0.37089777 0.4593688 3.7728312
-0.3717345 0.48086756 3.7813427
-0.37257504 0.50246358 3.7898929
-0.3734194 0.52415752 3.7984817
-0.37426755 0.54594994 3.8071094
-0.37511963 0.56784159 3.8157766
-0.37597555 0.5898332 3.8244832
-0.37683541 0.61192536 3.8332298
-0.37774235 0.63419133 3.8424556
-0.37865371 0.65656471 3.8517261
-0.37956944 0.67904627 3.8610411
-0.38048965 0.70163685 3.8704014
-0.38141432 0.72433728 3.8798075
-0.3823435 0.74714828 3.8892591
-0.38327718 0.77007067 3.8987567
-0.38421547 0.7931053 3.9083011
-0.38515836 0.81625307 3.9178925
-0.38610587 0.83951461 3.9275305
-0.38705805 0.8628909 3.9372163
-0.38801491 0.8863827 3.9469497
-0.38897654 0.90999103 3.9567316
-0.38994297 0.93371665 3.966562
-0.39091417 0.95756042 3.9764414
-0.39189023 0.98152328 3.9863701
-0.3928712 1.0056061 3.9963486
-0.39385709 1.0298098 4.0063772
-0.39484793 1.0541353 4.0164561
-0.39584371 1.0785834 4.0265856
-0.3968446 1.1031551 4.0367665
-0.39785057 1.1278516 4.0469995
-0.39886159 1.1526735 4.0572839
-0.39987785 1.1776218 4.0676212
-0.40089923 1.2026978 4.078011
-0.40192589 1.2279021 4.0884542
-0.40295777 1.2532357 4.0989509
-0.40365431 1.2776215 4.1060362
-0.40084702 1.2908009 4.0774798
-0.39807853 1.3037984 4.0493183
-0.39534777 1.3166169 4.0215406
-0.39265403 1.32926 3.9941394
-0.38999796 1.3417361 3.9671216
-0.38737646 1.3540406 3.9404552
-0.38478997 1.3661809 3.914145
-0.38249651 1.3790929 3.8908155
-0.38363352 1.4043099 3.9023814
-0.38272968 1.4220691 3.8931875
-0.38024086 1.4337523 3.8678708
-0.37778419 1.4452845 3.8428812
-0.37535906 1.4566686 3.8182123
-0.37296495 1.4679079 3.793859
-0.37060148 1.4790059 3.7698174
-0.36826774 1.489964 3.7460783
-0.36802083 1.5092231 3.7435668
-0.3691456 1.5341556 3.755008
-0.37027749 1.559242 3.7665219
-0.3692292 1.5751522 3.7558584
-0.36697176 1.5857221 3.7328954
-0.32422894 -1.3484288 3.3597555
-0.3036319 -1.2457421 3.146323
-0.3178997 -0.92398882 3.2941699
-0.31833395 -0.90740049 3.2986698
-0.3187694 -0.8907668 3.3031819
-0.31920603 -0.87408757 3.3077066
-0.31964386 -0.85736251 3.3122435
-0.32008287 -0.84059149 3.3167927
-0.32052311 -0.8237744 3.3213546
-0.32096457 -0.80691093 3.3259292
-0.32140723 -0.79000098 3.3305161
-0.32185113 -0.77304429 3.3351159
-0.32229626 -0.75604075 3.3397284
-0.32274261 -0.73899007 3.3443537
-0.32319018 -0.72189212 3.3489916
-0.32363904 -0.70474672 3.3536427
-0.32408923 -0.68755376 3.3583076
-0.32454088 -0.67031342 3.362988
-0.32499385 -0.65302503 3.3676817
-0.32544807 -0.6356883 3.3723884
-0.32595375 -0.61839825 3.3776286
-0.3265565 -0.6012302 3.3838744
-0.32716146 -0.5839985 3.3901432
-0.32776868 -0.56670284 3.3964353
-0.32837817 -0.54934293 3.402751
-0.32898992 -0.53191829 3.40909
-0.32960394 -0.51442856 3.4154527
-0.33022025 -0.49687347 3.4218392
-0.33083892 -0.47925261 3.4282498
-0.33145985 -0.46156558 3.4346843
-0.33208314 -0.44381207 3.441143
-0.33270878 -0.42599162 3.4476261
-0.33333677 -0.40810391 3.4541335
-0.33396715 -0.39014855 3.4606657
-0.33459994 -0.37212515 3.4672227
-0.33523509 -0.35403332 3.4738045
-0.33587268 -0.33587268 3.4804113
-0.33651271 -0.31764284 3.4870434
-0.33715516 -0.29934338 3.4937007
-0.33780009 -0.28097391 3.5003836
-0.33844748 -0.26253402 3.507092
-0.33909744 -0.2440234 3.5138273
-0.33974993 -0.22544155 3.5205886
-0.34040493 -0.20678803 3.5273757
-0.34106246 -0.18806247 3.5341892
-0.34172252 -0.16926442 3.541029
-0.34238514 -0.15039347 3.5478954
-0.34305036 -0.13144921 3.5547886
-0.34371817 -0.11243118 3.5617085
-0.34438854 -0.093338951 3.5686553
-0.34506157 -0.074172109 3.5756292
-0.34573722 -0.054930214 3.5826306
-0.34641555 -0.03561281 3.5896595
-0.34714058 -0.016221521 3.5971725
-0.34788719 0.0032512823 3.6049092
-0.34863701 0.022808028 3.612679
-0.34939009 0.042449262 3.6204827
-0.35014641 0.062175535 3.62832
-0.35090601 0.081987388 3.6361911
-0.35166895 0.10188539 3.6440969
-0.3524352 0.12187012 3.6520369
-0.35320479 0.1419421 3.6600115
-0.35397774 0.16210195 3.6680212
-0.35475406 0.18235022 3.6760657
-0.35553384 0.20268752 3.6841459
-0.35631701 0.22311439 3.6922615
-0.35710368 0.24363147 3.700413
-0.35789382 0.26423937 3.7086008
-0.35868743 0.28493863 3.7168245
-0.35948461 0.3057299 3.725085
-0.36028531 0.32661378 3.7333822
-0.36108959 0.34759092 3.7417164
-0.3618975 0.36866194 3.750088
-0.36270902 0.38982743 3.7584972
-0.36352417 0.41108808 3.7669442
-0.36434299 0.43244448 3.775429
-0.3651655 0.45389733 3.7839522
-0.36599177 0.47544724 3.7925141
-0.36682177 0.49709493 3.8011148
-0.36765555 0.51884097 3.8097546
-0.36849311 0.54068613 3.8184338
-0.36933449 0.56263101 3.8271523
-0.37017974 0.58467638 3.835911
-0.37102884 0.60682291 3.8447099
-0.37188187 0.62907124 3.8535492
-0.37273884 0.65142208 3.8624291
-0.37359977 0.67387617 3.8713503
-0.37446466 0.69643426 3.8803127
-0.37533358 0.71909702 3.8893166
-0.37620652 0.74186522 3.8983624
-0.37708354 0.76473951 3.9074504
-0.37796471 0.7877208 3.9165812
-0.37884995 0.81080967 3.9257543
-0.37974527 0.83401996 3.9350319
-0.3806836 0.85742754 3.9447551
-0.38162655 0.88095099 3.9545262
-0.38257417 0.90459126 3.9643457
-0.3835265 0.92834926 3.9742143
-0.38448364 0.9522258 3.9841323
-0.38544554 0.97622192 3.9940999
-0.38641223 1.0003382 4.004117
-0.38738379 1.0245758 4.0141845
-0.38836026 1.0489357 4.024303
-0.38934165 1.0734186 4.0344725
-0.39032802 1.0980256 4.0446935
-0.39131939 1.1227576 4.0549664
-0.3923158 1.1476153 4.0652914
-0.39331731 1.1726002 4.0756693
-0.39432395 1.197713 4.0861006
-0.39533576 1.2229546 4.0965853
-0.3963528 1.2483261 4.1071239
-0.39718604 1.2732226 4.1157584
-0.39441723 1.2864637 4.0870671
-0.39168653 1.2995207 4.0587707
-0.38899377 1.3123995 4.0308676
-0.38633728 1.3251008 4.0033402
-0.38371715 1.3376307 3.9761896
-0.38113281 1.3499937 3.94941
-0.37858224 1.3621885 3.9229803
-0.37606552 1.3742207 3.8969014
-0.376223 1.3958929 3.8985331
-0.37653816 1.4181764 3.901799
-0.3740842 1.4299107 3.8763704
-0.37166205 1.4414929 3.8512712
-0.36927104 1.4529263 3.8264949
-0.36691082 1.4642142 3.8020375
-0.36458069 1.4753592 3.7778921
-0.36228001 1.4863638 3.7540517
-0.36090302 1.5009519 3.739783
-0.36200491 1.5258338 3.7512012
-0.36311376 1.5508691 3.7626915
-0.3631987 1.5715981 3.7635715
-0.36097431 1.5822145 3.7405217
-0.35877684 1.5927008 3.7177508
-0.30383602 -1.2761112 3.2084081
-0.46243015 -1.1935102 4.88311
-0.46207631 -1.1661925 4.8793736
-0.46345872 -1.1343704 4.8939714
-0.46450222 -1.1103815 4.9049902
-0.46554929 -1.0862817 4.9160471
-0.32039478 -0.72927958 3.3832633
-0.32084429 -0.71196878 3.38801
-0.32129508 -0.69460934 3.3927701
-0.32174712 -0.67720109 3.3975437
-0.32220045 -0.65974373 3.4023304
-0.32265505 -0.64223719 3.407131
-0.32311091 -0.62468112 3.4119449
-0.32356808 -0.60707533 3.4167724
-0.32402655 -0.58941972 3.4216137
-0.32448632 -0.57171398 3.4264686
-0.32494739 -0.55395794 3.4313374
-0.3254098 -0.53615135 3.4362202
-0.32587349 -0.51829404 3.4411166
-0.32633889 -0.5003863 3.4460311
-0.32680559 -0.48242733 3.4509594
-0.32727364 -0.46441689 3.4559019
-0.32774305 -0.44635481 3.4608586
-0.32821381 -0.42824087 3.4658296
-0.32882041 -0.41024262 3.4722352
-0.32944551 -0.39219704 3.4788361
-0.330073 -0.37408271 3.485462
-0.33070287 -0.35589927 3.4921134
-0.33133516 -0.33764631 3.49879
-0.33196986 -0.31932339 3.5054922
-0.332607 -0.30093014 3.5122204
-0.33324659 -0.28246617 3.5189743
-0.33388865 -0.26393104 3.5257542
-0.33453318 -0.24532434 3.5325603
-0.33518022 -0.22664568 3.5393927
-0.33582976 -0.20789462 3.5462518
-0.33648184 -0.18907075 3.5531373
-0.33713642 -0.17017363 3.5600495
-0.33779359 -0.15120284 3.5669889
-0.33845329 -0.13215795 3.5739553
-0.33911562 -0.11303853 3.5809491
-0.33978054 -0.093844146 3.5879705
-0.34044814 -0.074574359 3.5950203
