# .PCD v0.7 - Point Cloud Data file format
VERSION 0.7
FIELDS x y z
SIZE 4 4 4
TYPE F F F
COUNT 1 1 1
WIDTH 1510
HEIGHT 1
VIEWPOINT 0 0 0 1 0 0 0
POINTS 1510
DATA ascii
0.12501931 1.4847473 3.9599087
0.15041837 1.4666157 3.8767719
0.12509263 1.475383 3.9234161
0.11356331 1.4822689 3.8476081
0.13691767 1.525545 3.8349037
0.17476203 1.5773317 3.8002381
0.13474932 1.560816 3.7641754
0.11342844 1.5426333 3.7909579
0.13832404 1.5543491 3.7461011
0.11891027 1.5511791 3.7206872
0.19414943 1.0072089 4.9755397
0.1532077 1.0198365 4.8899188
0.17415148 1.06451 4.9008679
0.15755825 1.0630544 4.8500838
0.13674362 1.0552473 4.8220606
0.14950439 1.1198872 4.803257
0.14965625 1.1119552 4.7340903
0.17582242 1.1217784 4.7108955
0.19740582 1.158823 4.6450644
0.16381156 1.1510296 4.6598101
0.17721237 1.1695441 4.6172028
0.16449101 1.1898881 4.5514956
0.1468357 1.2037163 4.5313778
0.14356029 1.2238852 4.4877329
0.16888857 1.2269996 4.4330745
0.16757162 1.2513592 4.392426
0.17315522 1.2723715 4.406661
0.16557239 1.2920194 4.3811631
0.12033138 1.3272665 4.3720989
0.16399911 1.3185564 4.3251843
0.14431939 1.3971347 4.2740269
0.1519383 1.3700753 4.2850647
0.18171242 1.3465741 4.1836715
0.12278379 1.3372777 4.1973157
0.14278516 1.4074827 4.1646552
0.18532109 1.4464583 4.1367865
0.14427069 1.3762819 4.1359754
0.15125036 1.4154257 4.0916162
0.17106411 1.3910068 4.0878005
0.15577397 1.4472244 4.0377159
0.13211441 1.4835652 4.0078402
0.14670104 1.488856 3.9725912
0.12878582 1.4759817 3.9609354
0.1651545 1.4839284 3.9019737
0.12883435 1.5174186 3.8548169
0.10029995 1.5148509 3.8812413
0.11387376 1.5417194 3.8912139
0.13114578 1.5333905 3.8381512
0.12983572 1.5212944 3.7865133
0.13258381 1.5545876 3.769423
0.12835982 1.5799451 3.735393
0.13082458 1.6002208 3.7396655
0.22453046 0.98226446 5.0068164
0.15980275 1.0781074 4.9407229
0.19997473 1.0277776 4.8756323
0.21077695 1.0626372 4.8576088
0.15550981 1.0751001 4.8452926
0.16995405 1.0863358 4.8024445
0.13032363 1.1247417 4.7433906
0.14140169 1.1349125 4.6728354
0.19992489 1.1230146 4.6555181
0.18937042 1.1419928 4.6603069
0.18103734 1.226281 4.5804744
0.17391725 1.1976042 4.5783372
0.16764298 1.2029481 4.5429945
0.19897221 1.2251579 4.556551
0.13268369 1.2431742 4.46351
0.17839395 1.218521 4.4491224
0.18766409 1.271219 4.413105
0.17326508 1.2749062 4.3821406
0.1521771 1.2801433 4.329679
0.18824202 1.3058025 4.3361087
0.15306178 1.3203853 4.2873459
0.14958939 1.3155681 4.3023772
0.115417 1.3322629 4.2716908
0.13030277 1.3832637 4.2188058
0.15177435 1.3773767 4.1891255
0.11898299 1.3943595 4.1552725
0.14355461 1.4302363 4.1288233
0.14617071 1.3946196 4.0903654
0.14058863 1.468677 4.0559702
0.1585407 1.4394183 4.0558105
0.14544064 1.4627516 4.0291042
0.12561373 1.4595327 3.9832809
0.15809725 1.4726498 3.9740973
0.14580488 1.5174071 3.8863728
0.13402407 1.5065812 3.9127221
0.14439322 1.5140852 3.8569956
0.14150888 1.528869 3.8715038
0.12071361 1.5397826 3.8414593
0.099811107 1.5306972 3.8133204
0.11485147 1.5858583 3.8057039
0.15157619 1.5605359 3.7486682
0.14248505 1.5738062 3.77319
0.13695134 1.6219853 3.6698523
0.20655484 1.0139066 4.9780817
0.19097961 1.0327123 4.9061432
0.15308398 1.0384274 4.9018474
0.14904502 1.0494043 4.8326497
0.18905844 1.089579 4.8261204
0.17822368 1.1010256 4.7589827
0.19759429 1.0924399 4.7553082
0.17279996 1.1416044 4.7093573
0.22657017 1.1484523 4.6976633
0.18332383 1.1377469 4.6353807
0.14650178 1.2224665 4.5779829
0.13204987 1.2394048 4.555593
0.14099471 1.1915549 4.5105805
0.20049396 1.2628577 4.4443803
0.16172253 1.2518476 4.4630065
0.19145244 1.2429059 4.4365711
0.17089514 1.2905537 4.4153986
0.16922583 1.3052909 4.339416
0.16237393 1.3179578 4.3709912
0.19728601 1.2987974 4.325974
0.15510519 1.3316052 4.2794571
0.21225856 1.3734359 4.2408681
0.16137524 1.3760909 4.2176533
0.17725711 1.3819554 4.1839418
0.16865556 1.3946062 4.1353183
0.12295397 1.3921704 4.144733
0.17258716 1.4430304 4.1036334
0.17024733 1.4249235 4.0854826
0.15090115 1.4145746 4.0691628
0.17717727 1.4487534 4.0167513
0.14924313 1.4873687 3.9692261
0.15802783 1.4649622 3.9790576
0.17640029 1.5147303 3.9484618
0.1316096 1.5069758 3.8797286
0.18764648 1.4868432 3.8908038
0.15606625 1.5274003 3.9312172
0.1097286 1.5101641 3.8147268
0.182455 1.5329916 3.8058619
0.14283291 1.5425193 3.8080246
0.18039653 1.5828661 3.7750959
0.14930028 1.5952387 3.768189
0.15361774 1.5719121 3.7284191
0.18013161 1.0081646 4.9584131
0.18912353 1.0396448 4.9426498
0.23813042 1.0313239 4.890223
0.19161943 1.0578926 4.8666987
0.18613257 1.102937 4.8022618
0.17734411 1.0932405 4.8103061
0.19452578 1.1229482 4.7254672
0.19035475 1.1269767 4.7201233
0.21500091 1.1357622 4.6825213
0.21529303 1.1421158 4.6411705
0.19362992 1.1737291 4.5944114
0.2055359 1.2178539 4.5683198
0.20819189 1.2050766 4.5195112
0.1759461 1.2215661 4.4959297
0.19774354 1.2422122 4.4642816
0.14806479 1.2667339 4.4104056
0.18958372 1.2974253 4.4048591
0.1635862 1.2901496 4.3574257
0.18036607 1.3367995 4.3093953
0.18978567 1.358182 4.3277683
0.18369679 1.342865 4.2895622
0.19105203 1.3459282 4.2622743
0.16934775 1.366946 4.2192574
0.16658728 1.374341 4.1981931
0.14745873 1.3988246 4.1389203
0.13121739 1.4213092 4.1583619
0.17968807 1.4062359 4.1075759
0.14945927 1.4371841 4.0836582
0.16586834 1.4303491 4.0600986
0.15667529 1.458958 4.0579805
0.16204929 1.4506983 4.0176163
0.13664141 1.4903041 3.9966905
0.14373009 1.497708 3.9587438
0.12684193 1.5118004 3.9186475
0.1435433 1.5139761 3.9127362
0.12716846 1.5541581 3.8827026
0.1324838 1.527775 3.8794725
0.18249822 1.5375775 3.8336828
0.17063054 1.5575497 3.841455
0.11411742 1.541732 3.7857985
0.10283908 1.5636574 3.7744741
0.1634161 1.5794334 3.7492335
0.19649388 0.96697921 4.974937
0.24886389 1.0102415 4.9572473
0.18749721 1.0305675 4.9070854
0.19644846 1.0242894 4.8990483
0.21607651 1.0767764 4.8243852
0.18413179 1.1029611 4.7816238
0.22814931 1.123106 4.7315626
0.20950423 1.1481102 4.7006216
0.22064584 1.1317241 4.7270384
0.19836295 1.1479615 4.6821446
0.22664894 1.159202 4.6243377
0.1731606 1.2171735 4.5828195
0.15836771 1.1977394 4.559165
0.20781913 1.224947 4.4912968
0.16071062 1.2483066 4.4975014
0.2285772 1.2596372 4.4357386
0.19876017 1.2285051 4.464386
0.17349088 1.2691292 4.3818603
0.1767839 1.3104439 4.3427777
0.18336646 1.3030541 4.3104167
0.22038364 1.354237 4.329761
0.1802278 1.3221066 4.2833343
0.17318846 1.3569356 4.2552652
0.17217854 1.3589268 4.2013626
0.18642212 1.3915056 4.1941481
0.20051633 1.3758876 4.1625257
0.20365755 1.4237055 4.1421323
0.1546077 1.4024234 4.0874019
0.17714652 1.4617659 4.0446177
0.200289 1.46465 4.018189
0.16665705 1.4483347 3.9786665
0.13668227 1.4793848 3.985224
0.17778786 1.4965357 3.9792054
0.1549318 1.5076544 3.9476049
0.17349137 1.4929903 3.8857777
0.1709954 1.5313597 3.8777711
0.16603425 1.5443451 3.857584
0.15718335 1.5078117 3.8078139
0.19335096 1.567094 3.7934966
0.12792036 1.5395639 3.7874742
0.21127845 1.6118498 3.7907643
0.19395734 1.552965 3.7463503
0.18237591 1.5867391 3.7314374
0.20210576 1.0046215 4.9766407
0.22104746 1.0369325 4.9301548
0.21308742 1.0643715 4.9371953
0.23483716 1.0602366 4.820549
0.20957676 1.0972807 4.824882
0.22543627 1.0897202 4.7926054
0.21167256 1.1392006 4.7550573
0.22971536 1.1417173 4.7057967
0.20405237 1.1586821 4.6729264
0.20800664 1.1736892 4.6325498
0.1836817 1.2022314 4.6081748
0.20126146 1.1967043 4.5376315
0.20690417 1.2564473 4.5327706
0.20530048 1.1952211 4.4869485
0.15889394 1.2849078 4.4506054
0.18410078 1.2335273 4.4315634
0.16010216 1.2540699 4.412416
0.21107541 1.3281475 4.3549328
0.16073835 1.3232625 4.3564754
0.17522331 1.3300879 4.3729382
0.190753 1.3362083 4.2381229
0.1946252 1.3192115 4.2009964
0.19536485 1.3711478 4.2273445
0.18460199 1.3741421 4.1846361
0.22650863 1.424112 4.1531997
0.19015554 1.4024799 4.1732993
0.16527434 1.4158978 4.0904732
0.14867891 1.4283472 4.1192365
0.15865736 1.4805961 4.0309486
0.15819399 1.4396502 4.0038409
0.18801597 1.5062466 4.0121508
0.17029251 1.4824179 4.0062823
0.188225 1.4774667 3.9145253
0.14086938 1.5314393 3.9507451
0.20667551 1.5386643 3.8789649
0.19779402 1.5012754 3.8452544
0.15723889 1.5571607 3.845125
0.2122248 1.537522 3.8020046
0.18342544 1.4997593 3.8039637
0.13931867 1.5795866 3.7700312
0.17727827 1.6010848 3.7316213
0.13973992 1.5721047 3.7348042
0.21332185 1.0067513 5.0018606
0.22573516 1.0656114 4.9747019
0.22860539 1.0170506 4.9096231
0.23392053 1.0326099 4.8857913
0.23387979 1.0681007 4.8492985
0.24337715 1.1270471 4.7753935
0.22722484 1.114359 4.7431531
0.2484557 1.1192358 4.7053199
0.208257 1.1316829 4.7048354
0.21638584 1.1847209 4.6363025
0.18143629 1.1639537 4.6152692
0.20762172 1.1814624 4.5762672
0.19441742 1.1903402 4.5302052
0.18320075 1.2637593 4.4917674
0.19508956 1.2520119 4.462626
0.19802155 1.2696536 4.438921
0.17863397 1.2659646 4.4155979
0.17759149 1.2866813 4.3275146
0.23289514 1.3056515 4.3377633
0.21887983 1.3120576 4.2927203
0.21141864 1.3028506 4.285727
0.19592743 1.3618934 4.2153516
0.23020238 1.353196 4.2170548
0.19797836 1.3338332 4.2035894
0.19139861 1.3917545 4.1563263
0.16468006 1.3954329 4.1596107
0.2000995 1.3823115 4.1074414
0.20383245 1.4393823 4.1111517
0.20950463 1.4297601 4.0287061
0.17221969 1.463982 3.9961412
0.21128316 1.4811865 4.0300045
0.18234977 1.464745 3.9817646
0.18699239 1.4775993 3.9899344
0.20904821 1.4762872 3.9376862
0.18247715 1.5012008 3.8923075
0.15409292 1.5141271 3.8617923
0.21235612 1.5637481 3.8495793
0.17656657 1.5393569 3.7840397
0.18997739 1.564925 3.8065424
0.19639061 1.5860449 3.8000689
0.18629685 1.5962334 3.7878883
0.16828983 1.582065 3.6973073
0.23399948 0.98251718 4.9702101
0.22187047 1.0285889 4.9712658
0.21395963 1.0254582 4.931447
0.24425448 1.0973755 4.8684807
0.23821771 1.0752764 4.8315392
0.22677511 1.1334844 4.7814603
0.20947564 1.0939956 4.7656984
0.22784536 1.1290123 4.7099733
0.22446293 1.1079562 4.7079568
0.24753396 1.140941 4.6515913
0.20435101 1.1746911 4.5990057
0.25685155 1.2395974 4.5625811
0.23110482 1.216373 4.5344167
0.23056757 1.254777 4.5244775
0.19761819 1.2299771 4.4755673
0.25410628 1.2341169 4.4378624
0.19863619 1.2643298 4.4114327
0.20712253 1.285104 4.3437986
0.18633848 1.2937114 4.3577142
0.24029492 1.3178736 4.3322306
0.24050164 1.321324 4.3180218
0.19901659 1.3525852 4.2563162
0.20200074 1.3537177 4.2210398
0.20483325 1.3577178 4.2185602
0.21034884 1.3820157 4.1537127
0.2155935 1.3953197 4.1825304
0.14390194 1.4151671 4.1291165
0.22181189 1.4493212 4.1009159
0.18586501 1.4110483 4.0623631
0.2060442 1.4523175 4.05481
0.22161914 1.4749682 4.0589623
0.17786272 1.4531248 3.9823339
0.19048871 1.4713545 3.9710848
0.1658033 1.4884111 3.9570022
0.20286773 1.5258641 3.9090312
0.21860313 1.5209601 3.8891332
0.1407803 1.5299206 3.8813815
0.15825452 1.5357827 3.8159049
0.18644808 1.5691459 3.8101487
0.19349296 1.5543897 3.7291884
0.22124825 1.5596008 3.7462406
0.17915152 1.5961266 3.7557361
0.19123721 1.5768083 3.6867845
0.26814961 1.0064794 4.9815235
0.24745722 1.0017205 4.9309769
0.25765353 1.0162836 4.9077597
0.23973429 1.0758367 4.8279614
0.23139614 1.0859942 4.8179059
0.25385785 1.0978308 4.7856197
0.22449851 1.1577619 4.6911473
0.26152098 1.1380661 4.6868982
0.2722885 1.1459364 4.6738086
0.25711143 1.1888578 4.64887
0.20925075 1.2084972 4.5564179
0.17390794 1.155497 4.5896358
0.2051511 1.1884484 4.5211396
0.23799984 1.2279336 4.4977055
0.22008897 1.2682639 4.4856095
0.1954311 1.2492204 4.4001055
0.19856009 1.2968026 4.4130569
0.2084136 1.2864163 4.3415422
0.17077971 1.352844 4.3555403
0.23240207 1.3166006 4.306869
0.2357493 1.3187249 4.2758093
0.20487171 1.3641038 4.2354641
0.21086971 1.3725975 4.2604389
0.21854842 1.380233 4.201335
0.21029253 1.3661608 4.1770172
0.21140949 1.4025522 4.1299462
0.22901678 1.3893987 4.0883641
0.19277531 1.4258657 4.0950089
0.18349262 1.4303193 4.0205989
0.20443797 1.4534247 4.0325093
0.2100663 1.4459877 3.9923546
0.20950198 1.4980295 4.0073328
0.22567783 1.4859924 3.9338813
0.2035833 1.498728 3.9105506
0.15289566 1.4903501 3.8994493
0.17070226 1.5345215 3.8410943
0.16668455 1.5173986 3.8445413
0.21202376 1.5388483 3.8109512
0.19662286 1.5573349 3.7703824
0.18750824 1.5479785 3.7522748
0.17407523 1.5440879 3.7775564
0.14966629 1.5516775 3.7495158
0.24011508 1.0217035 4.9831724
0.20269339 1.0748925 4.9403939
0.27416012 1.0287797 4.8832793
0.22866052 1.0713019 4.8729806
0.27185214 1.092695 4.8301997
0.2590493 1.0707687 4.8056927
0.2343808 1.1316584 4.7355256
0.23096211 1.1157962 4.6947322
0.25707322 1.1247944 4.6571808
0.26962784 1.1813122 4.622889
0.22549102 1.2193717 4.5833416
0.20973788 1.2070118 4.598115
0.22256468 1.2066993 4.5013738
0.24388966 1.2287972 4.4883256
0.24645168 1.247153 4.4555969
0.20646542 1.2564102 4.4423223
0.20959795 1.3247883 4.3824911
0.21292202 1.2704616 4.3541183
0.21304879 1.3176827 4.3483615
0.23055995 1.3584007 4.3403382
0.23903191 1.3251443 4.2768588
0.19332328 1.3528818 4.2557278
0.20844708 1.3331349 4.1853704
0.20564702 1.3798952 4.1899233
0.20157675 1.3708762 4.1786823
0.2216306 1.4426651 4.167294
0.237452 1.4457742 4.0890069
0.24278073 1.4468491 4.083755
0.23844808 1.4706892 4.0451455
0.24928027 1.4468892 4.0353436
0.19511145 1.4728172 4.003859
0.20247601 1.4627901 3.9779267
0.23823339 1.4688457 3.9478614
0.21960279 1.4993376 3.9481316
0.22247306 1.4855362 3.9245949
0.19673738 1.5323479 3.8949211
0.18953513 1.5452943 3.824671
0.19567432 1.5421238 3.8311839
0.21389002 1.5439285 3.7981911
0.19204697 1.5383891 3.7612376
0.13871063 1.5454887 3.7768083
0.20522235 1.5627956 3.7565298
0.28325337 1.0006425 5.0143638
0.23795383 1.0061291 4.9754243
0.24139416 1.0452423 4.9036579
0.24018076 1.0613493 4.8700967
0.25185853 1.1056401 4.839426
0.26969212 1.0855875 4.8023996
0.26170987 1.1201689 4.7562718
0.26071012 1.1224769 4.7590384
0.25185934 1.134485 4.6457076
0.25895944 1.1918627 4.6591539
0.25640506 1.201112 4.6124201
0.23849499 1.1888267 4.5759549
0.24165802 1.236396 4.5343785
0.20823821 1.2196425 4.5203972
0.22562705 1.2350603 4.4632225
0.25177783 1.2274698 4.4616828
0.26319471 1.2677407 4.425703
0.23678741 1.2833977 4.3784451
0.25815833 1.2740831 4.3300543
0.24596792 1.3083326 4.272079
0.25447443 1.3028914 4.3029947
0.22075845 1.3091938 4.2813406
0.23469263 1.3679652 4.2369041
0.21132566 1.3552802 4.1879897
0.20756893 1.3494521 4.1629043
0.20537117 1.3603029 4.1604061
0.23508698 1.4512453 4.0970254
0.19205536 1.4111413 4.0798426
0.24601692 1.4460987 4.0987673
0.23927726 1.4729061 4.0603757
0.26295719 1.4587936 3.9703887
0.21618865 1.4838938 3.9719191
0.20574455 1.4964715 3.9815588
0.2136838 1.4683491 3.9280195
0.20415203 1.5209002 3.8909519
0.18984132 1.5282809 3.8848267
0.21016434 1.516919 3.8439319
0.19614664 1.5109932 3.8428349
0.18786022 1.52721 3.7843933
0.19208875 1.5650158 3.7840636
0.18832728 1.5846763 3.7777886
0.21267523 1.5869638 3.7196867
0.20403226 1.6044524 3.6905394
0.25399554 1.0395607 4.9915075
0.24176615 1.0446181 4.9059167
0.26555443 1.0282751 4.8715663
0.25579968 1.0888765 4.8722782
0.28350747 1.1258075 4.8265181
0.22700465 1.1023117 4.7535567
0.2401095 1.0926316 4.7384419
0.24642941 1.1296979 4.7476678
0.29001766 1.146209 4.6321635
0.24347459 1.1543643 4.64785
0.25990796 1.1448801 4.6015973
0.23535821 1.1957213 4.5781903
0.23984277 1.2173448 4.5053301
0.26843864 1.2140113 4.5130258
0.24515294 1.3031106 4.4450555
0.26123968 1.243307 4.4247341
0.23844106 1.2988727 4.4177179
0.24876817 1.3083165 4.3357677
0.28072748 1.3045757 4.3412981
0.22417867 1.3230532 4.316844
0.23947303 1.3486755 4.2961259
0.21646765 1.3202943 4.2511559
0.24196932 1.3712597 4.194684
0.21573041 1.3649863 4.1855688
0.24922915 1.3774889 4.1512408
0.22720489 1.3726687 4.1187491
0.18807691 1.4001744 4.1057272
0.24263939 1.4542172 4.1023459
0.26849881 1.4674054 4.0304379
0.19125214 1.466296 4.0537286
0.17802851 1.474676 4.0282464
0.24356057 1.4722644 4.003129
0.18868005 1.5606421 3.9313455
0.22410586 1.4956135 3.9523239
0.19236316 1.508482 3.9206238
0.23333654 1.5018955 3.8570969
0.2306231 1.5467467 3.8471262
0.21006763 1.5377721 3.8267636
0.18379499 1.5267905 3.8304663
0.23654608 1.5687664 3.7508433
0.22494312 1.5621086 3.7643263
0.21544828 1.5627681 3.7095404
0.29123214 0.99249643 5.00807
0.29240653 1.030978 4.9294329
0.29124609 1.0803916 4.8892899
0.31218582 1.0514783 4.848382
0.28107062 1.084271 4.8311205
0.29066342 1.0854789 4.7696095
0.27479616 1.1183857 4.744864
0.27164567 1.1463896 4.7231345
0.30677408 1.1545694 4.6664801
0.27268317 1.1809007 4.6676989
0.25197086 1.1944673 4.6231337
0.25140461 1.2001212 4.5807714
0.26946864 1.2029837 4.5657072
0.22870809 1.224979 4.5120888
0.24528287 1.2602438 4.4833689
0.23176844 1.2676084 4.4591365
0.26761174 1.273224 4.3702679
0.25161362 1.2679896 4.3669386
0.27512544 1.2918622 4.3643451
0.26563025 1.3492454 4.3556747
0.22952835 1.3501217 4.2351689
0.25098601 1.366998 4.2401609
0.22139245 1.3162596 4.1994214
0.28263238 1.3479638 4.1767111
0.19691601 1.3810248 4.1465912
0.23554453 1.4260011 4.1684856
0.21454296 1.4256731 4.0937319
0.25069481 1.4387045 4.0661922
0.21613653 1.4404757 4.0588946
0.22714914 1.4328902 4.0546551
0.23567598 1.462314 3.9954748
0.23706548 1.4776855 3.9818444
0.24002241 1.4972414 3.964251
0.25191006 1.5353734 3.9224999
0.24219593 1.5249922 3.903373
0.2212981 1.5476063 3.8710508
0.24803925 1.5437044 3.872905
0.25122309 1.5227091 3.8300829
0.19051442 1.5770935 3.7837355
0.19749969 1.5398064 3.7859426
0.21252434 1.5601776 3.7623551
0.20385072 1.5997545 3.6833162
0.30128279 0.97720629 4.9809079
0.29553753 1.0213938 4.960072
0.30276659 1.0561017 4.9227452
0.25006962 1.0527492 4.8852139
0.31696427 1.0613749 4.8377132
0.2850686 1.0752034 4.7923927
0.27078283 1.1190602 4.7364902
0.31009042 1.1483252 4.755558
0.28600895 1.1686461 4.6513438
0.24413574 1.1536562 4.6514416
0.29420233 1.1978117 4.6067185
0.2802144 1.1735681 4.6033535
0.24789029 1.1911768 4.5430441
0.2704705 1.2221848 4.5112362
0.26521289 1.2644525 4.5120621
0.27218205 1.2904683 4.414465
0.29563063 1.3121377 4.3988891
0.26958105 1.3150518 4.363565
0.2418201 1.30498 4.3520761
0.26506642 1.3317569 4.3376093
0.21966609 1.3125062 4.2741089
0.24707034 1.3253952 4.2935109
0.2556524 1.3223031 4.2441044
0.25750646 1.3913779 4.2066636
0.24883792 1.3749862 4.1803513
0.2580156 1.3778355 4.1647568
0.2508471 1.3994106 4.1105509
0.26896784 1.4090908 4.1082826
0.25438824 1.4360563 4.0619755
0.21479201 1.4639834 4.0349636
0.22434151 1.438099 4.007093
0.20423493 1.4707123 4.007391
0.25503442 1.479452 3.9349866
0.23123305 1.4661881 3.913708
0.24126574 1.431456 3.9244728
0.26740804 1.4656222 3.862113
0.24813756 1.5223763 3.8339
0.23222144 1.5191154 3.8409057
0.220575 1.51394 3.7962859
0.2482172 1.5852933 3.8010168
0.23768915 1.5452777 3.7970726
0.21879409 1.5642591 3.7147856
0.19951704 1.5614974 3.7271333
0.30123472 1.0325629 4.9960532
0.2864311 1.0442176 4.9433146
0.31673631 1.0604945 4.8841896
0.27434599 1.0672773 4.8750439
0.30714053 1.0694931 4.8240571
0.32824677 1.098473 4.7527661
0.2898266 1.1027246 4.7309723
0.28802526 1.1383609 4.6767135
0.31528586 1.1663275 4.6671691
0.26810089 1.1679587 4.6390347
0.27966514 1.1795174 4.6009741
0.245603 1.2397369 4.5454984
0.27041712 1.2147437 4.5349326
0.28733847 1.2381287 4.5083194
0.28693417 1.2341155 4.4490333
0.26542449 1.2512397 4.4169097
0.2617873 1.2930981 4.4032674
0.28906399 1.3077756 4.3314362
0.25038305 1.3385645 4.3250089
0.23149087 1.3089826 4.3052378
0.29282063 1.3324543 4.2890911
0.2531321 1.3688334 4.2568412
0.26522481 1.3683534 4.216301
0.22895184 1.3829533 4.1737614
0.25974116 1.3820269 4.1519728
0.26594847 1.3907787 4.131958
0.21488489 1.4375653 4.0887852
0.26012343 1.4710956 4.0466552
0.26758972 1.433606 4.0694156
0.26117131 1.4622707 4.027389
0.22534968 1.449106 3.9864571
0.27101836 1.4946285 3.9570489
0.2691831 1.4964122 3.9423752
0.24427745 1.4916068 3.8836329
0.20045857 1.5244999 3.8631957
0.2054261 1.5582803 3.8565748
0.25593227 1.4915686 3.8428986
0.22353613 1.5459082 3.8183959
0.20860514 1.5187043 3.8136861
0.20613413 1.5737902 3.7970088
0.22907782 1.5708963 3.7436643
0.21682835 1.5896446 3.7070775
0.33993813 1.0114869 4.9861622
0.34755284 1.0181804 4.955821
0.30614921 1.0337167 4.9462771
0.30994046 1.0916911 4.8621354
0.28792447 1.0902542 4.8560071
0.27067161 1.1223025 4.8020811
0.29479033 1.1453832 4.7273188
0.3280398 1.1300386 4.7020559
0.26563537 1.1077387 4.6617603
0.27708596 1.1636248 4.6294675
0.30783051 1.2335898 4.5828648
0.31439683 1.2166036 4.5554323
0.30745363 1.2100018 4.5338602
0.29471743 1.2373282 4.4909873
0.27363065 1.254027 4.4217143
0.28002739 1.2393045 4.435823
0.30069208 1.2702241 4.4229631
0.28015745 1.3227041 4.4011378
0.27399471 1.3036749 4.3759313
0.27757654 1.3385673 4.2955275
0.27550066 1.3249607 4.2851834
0.26910123 1.3445842 4.2693992
0.26977509 1.3814968 4.2257099
0.26282629 1.3809818 4.1723552
0.25665757 1.3906517 4.1411624
0.26509091 1.4079925 4.1546621
0.2648544 1.3860414 4.1035972
0.23978685 1.4114078 4.0709562
0.22637987 1.4167875 4.0967417
0.27497974 1.456339 4.0164495
0.28110883 1.5007442 4.0108676
0.25402972 1.4644158 3.939337
0.22843151 1.4721951 3.9741309
0.23652853 1.536808 3.909627
0.25940955 1.5260551 3.8595612
0.25649625 1.5320396 3.8946524
0.24345975 1.5358663 3.8598874
0.24204409 1.5347965 3.8374674
0.24028777 1.5745929 3.8018196
0.22490031 1.5907815 3.7658751
0.18953599 1.5549381 3.7551677
0.23701541 1.5884725 3.7641375
0.31967077 1.024964 5.0180039
0.35308149 1.0025637 4.973784
0.28664383 1.029493 4.8932261
0.32903644 1.0470515 4.8714542
0.29368716 1.0847245 4.8129888
0.28813568 1.0989528 4.8053336
0.30014136 1.0890239 4.7339468
0.31340349 1.1018065 4.7292666
0.29635042 1.1506352 4.6995921
0.27300125 1.1612078 4.6447511
0.32258287 1.1597456 4.5882492
0.28677264 1.2218561 4.5576372
0.26564839 1.2135282 4.5873995
0.28662845 1.2265711 4.4882703
0.2831139 1.2664 4.4760833
0.26791775 1.2535907 4.4181447
0.30063671 1.2826167 4.4328132
0.27937004 1.2484069 4.4101019
0.29870912 1.2966917 4.3444152
0.27262563 1.3309548 4.3252597
0.28120622 1.3266193 4.2711124
0.27958676 1.3288668 4.2880893
0.26677102 1.3686856 4.2404418
0.30056304 1.3661299 4.2017097
0.2879985 1.3721254 4.164536
0.26158729 1.4051696 4.1445036
0.22789113 1.4051772 4.1204972
0.27423987 1.4280884 4.1466498
0.26802146 1.423179 4.0576038
0.30090651 1.4525692 4.0632977
0.25483945 1.4411062 4.0088329
0.22717704 1.4456649 3.9802327
0.26218718 1.4940785 4.0172348
0.25085548 1.4950705 3.9489279
0.27769601 1.5041589 3.9288175
0.2368471 1.5284988 3.9083908
0.26153708 1.5621574 3.872376
0.22583655 1.5622803 3.8688016
0.22555178 1.5672344 3.8088851
0.22203068 1.6108124 3.7826576
0.27897587 1.5942397 3.7414622
0.23701963 1.5722777 3.7521219
0.24540839 1.6059407 3.73118
0.36212415 1.0076813 4.9951515
0.31648311 1.0118281 4.9056249
0.29024071 1.059167 4.8894629
0.3165234 1.0467434 4.8709927
0.33172977 1.0698146 4.8085332
0.33999681 1.1227883 4.7817373
0.28206882 1.1286831 4.7428637
0.30243173 1.1499873 4.6952906
0.29273489 1.1651845 4.6583724
0.29967302 1.1628062 4.6416554
0.27098185 1.1521608 4.6106467
0.30766889 1.2071563 4.6002617
0.29689994 1.2313179 4.5319557
0.31311098 1.2255352 4.5017524
0.33056578 1.2364204 4.4675145
0.28886929 1.2489306 4.4157777
0.27976358 1.308151 4.364387
0.33251905 1.3353169 4.3516965
0.29611909 1.3219764 4.3515263
0.29219586 1.306345 4.2984066
0.29169357 1.3293478 4.2735405
0.25292271 1.3770349 4.2657261
0.24052614 1.3597838 4.1936736
0.28457794 1.3963639 4.1922784
0.24961747 1.3938825 4.1703286
0.29386112 1.409772 4.1111779
0.28671077 1.4021724 4.1171722
0.27341181 1.4535151 4.0927515
0.27415627 1.4581988 4.0116234
0.2560811 1.4681798 3.987946
0.26180556 1.5012161 4.0014648
0.24437046 1.5027368 4.0080924
0.24578518 1.4986591 3.94259
0.23422277 1.5092568 3.9053588
0.25709105 1.483772 3.901685
0.22138783 1.5214958 3.8846278
0.25251836 1.5727252 3.841913
0.21132533 1.5452329 3.7932103
0.25354785 1.5326936 3.7946944
0.23673819 1.5447768 3.7806165
0.2488728 1.5768712 3.7526574
0.26319137 1.6182309 3.7410004
0.33393964 1.0139897 4.957449
0.33471373 1.024543 4.9530978
0.34994873 1.0339744 4.8758159
0.32794312 1.0505297 4.8369193
0.32781163 1.0895342 4.8292499
0.30794105 1.060909 4.8286648
0.29521823 1.1070409 4.7498298
0.28897744 1.1375247 4.7034273
0.33840156 1.1285925 4.6889205
0.28138441 1.1822468 4.6457591
0.30113438 1.1875811 4.5937233
0.31313932 1.2245545 4.580502
0.32422072 1.2094114 4.5392661
0.31510919 1.2472967 4.5358419
0.3107906 1.2640305 4.4561377
0.31004661 1.2911345 4.4308257
0.30618784 1.2987061 4.3972654
0.27998954 1.2888898 4.3972807
0.33634275 1.3218117 4.333674
0.29325908 1.3054473 4.2883649
0.29599103 1.3169764 4.3055139
0.26826224 1.3614975 4.2306547
0.29355931 1.3470287 4.2156849
0.31079948 1.3560033 4.1804867
0.26343799 1.3674291 4.2100387
0.32211554 1.4208978 4.1533327
0.24400693 1.4509212 4.1165533
0.27656293 1.439979 4.0743971
0.29288188 1.4813578 4.0651054
0.25574604 1.4562687 4.046659
0.29991028 1.4329916 3.9960234
0.23944345 1.4821631 3.9443028
0.24475637 1.5274277 3.9389482
0.27431461 1.5145429 3.9520884
0.24548809 1.5138178 3.9125774
0.24489632 1.5327727 3.8652682
0.25616249 1.5524558 3.8609574
0.28903979 1.5554968 3.8316352
0.23352171 1.5387962 3.8182857
0.25686193 1.5918312 3.7752945
0.27367491 1.5809586 3.7672694
0.29727209 1.5969282 3.7588234
0.32169271 1.0047998 5.006608
0.35449064 1.0569212 4.9646316
0.35538009 1.0544342 4.9329009
0.36443573 1.0501307 4.866538
0.33931848 1.0635142 4.8339672
0.33524945 1.084587 4.7928624
0.31859124 1.1243322 4.7529883
0.33731577 1.1402025 4.722064
0.31646493 1.1418579 4.6992898
0.30479512 1.1376171 4.6416354
0.33271566 1.1688755 4.6357746
0.28340933 1.2053294 4.5661979
0.31134781 1.1989131 4.5515113
0.32968578 1.2443367 4.5271397
0.2942284 1.2631972 4.4735327
0.31708276 1.2608873 4.4560695
0.31074348 1.2894034 4.3973255
0.30873561 1.2658423 4.4105434
0.27747288 1.3176378 4.3398676
0.2669155 1.3268044 4.2792835
0.30619749 1.3273101 4.3287935
0.30077332 1.3540643 4.2379622
0.26648313 1.3565539 4.2340107
0.29366314 1.3372226 4.2192979
0.27358621 1.3560548 4.1716962
0.28249833 1.3661592 4.1019568
0.28264955 1.4185883 4.1128492
0.28121814 1.4012374 4.0790067
0.28619358 1.4440987 4.0512304
0.28590858 1.4168059 4.0534916
0.25988039 1.4426564 4.0252175
0.2864899 1.4432752 3.9672599
0.23678444 1.4510168 3.9599171
0.30154479 1.5178397 3.9537075
0.2713455 1.5201963 3.9187617
0.29853818 1.4997559 3.8418369
0.26200455 1.4980795 3.8513553
0.28788161 1.5285821 3.8611181
0.24763685 1.580168 3.7964323
0.28079164 1.5311842 3.7622058
0.26081499 1.6150376 3.7433136
0.32262033 1.580681 3.7620173
0.22199708 1.591655 3.7286277
0.34817073 1.0050397 4.9780412
0.3053467 1.0686297 4.9161515
0.35066858 1.0626121 4.8626795
0.34611571 1.0854439 4.8308525
0.34695914 1.1325567 4.7924538
0.30556577 1.1039349 4.7829485
0.34667909 1.1200898 4.7773838
0.33927479 1.1519991 4.7148266
0.35931629 1.1808572 4.6676292
0.27755564 1.1608323 4.6291785
0.32302737 1.1809934 4.6134753
0.32111934 1.2271713 4.585237
0.33372015 1.2280306 4.513092
0.32727772 1.2344964 4.5084085
0.31255412 1.2464192 4.4909039
0.33945492 1.2768792 4.416327
0.31994712 1.291844 4.4236903
0.30759558 1.3030659 4.3810396
0.32126173 1.3184683 4.3364162
0.31937051 1.3303075 4.3107643
0.32813415 1.3486195 4.2976246
0.26272026 1.3627688 4.2434816
0.28150424 1.3323628 4.2361012
0.30659008 1.3592134 4.1740766
0.30966777 1.386705 4.1347022
0.27236861 1.4389855 4.1231036
0.31495962 1.4346572 4.1174693
0.26504502 1.4406072 4.0707254
0.26466063 1.4067006 4.0504169
0.29962394 1.4532416 4.0347881
0.23752487 1.4744632 4.0039725
0.2585595 1.470618 3.9722726
0.2856676 1.4732573 3.9216468
0.28717944 1.5210941 3.9037735
0.31486776 1.5377376 3.8959157
0.25390935 1.5365723 3.8565474
0.28803003 1.5080881 3.8490651
0.27126524 1.549233 3.8320494
0.29504961 1.5928357 3.7877185
0.28465635 1.5924821 3.8157272
0.24325533 1.5956869 3.7267482
0.32720628 1.6067649 3.7030113
0.36723116 1.011378 4.964561
0.32369119 0.9898724 4.9644918
0.34348738 1.0493541 4.8912725
0.32776755 1.0602376 4.857666
0.32733035 1.0910404 4.7843065
0.3219828 1.091213 4.7985406
0.34853393 1.1145447 4.7891793
0.32347277 1.1410061 4.6954937
0.33719414 1.1733675 4.6561232
0.35126585 1.1656698 4.6509166
0.3321223 1.1657428 4.6196947
0.32620972 1.205322 4.590374
0.36701044 1.2099723 4.5622497
0.32466596 1.2548075 4.4768443
0.3425613 1.2369164 4.4923759
0.32119387 1.2082584 4.4578543
0.30159238 1.2507031 4.3741369
0.32814783 1.2954537 4.3929214
0.30166996 1.3176897 4.3383803
0.35697317 1.3326113 4.3309159
0.32992151 1.3272046 4.308413
0.33795503 1.3400384 4.2369871
0.29766351 1.3579611 4.2398939
0.31177604 1.3862468 4.2342267
0.29806051 1.3857852 4.1696196
0.27789354 1.4139315 4.1428323
0.28494874 1.406756 4.1505976
0.30579853 1.4479119 4.0928974
0.30719918 1.4316086 4.0796294
0.349516 1.4609762 4.0421925
0.33039898 1.4905306 4.0099854
0.29535887 1.4603223 3.949641
0.29331094 1.5045503 3.9518328
0.30681992 1.4782163 3.9607263
0.26212731 1.4973668 3.9094794
0.28128457 1.5231516 3.8278213
0.29321873 1.5182571 3.866436
0.27272245 1.5103443 3.8196647
0.30388856 1.5650953 3.833575
0.27790225 1.5404962 3.7597032
0.26767078 1.6172632 3.727459
0.31159875 1.6073788 3.7502141
0.35803902 1.0237674 4.9927583
0.36185724 1.0049977 4.9451232
0.36728913 1.0454808 4.9100313
0.35814914 1.0354556 4.8726573
0.37785187 1.0852628 4.8457513
0.34957701 1.0772893 4.8216825
0.3552765 1.114454 4.7764196
0.35237584 1.1454329 4.6931672
0.35755908 1.1290059 4.7195745
0.35458383 1.160969 4.643003
0.3654559 1.1814668 4.6365194
0.36408612 1.2030753 4.586308
0.36202419 1.1939142 4.5757241
0.37037867 1.2239382 4.5293775
0.31393272 1.2216105 4.5253124
0.33486477 1.268875 4.437923
0.34092823 1.2578143 4.4311457
0.29902613 1.2462119 4.4240441
0.30214989 1.3044306 4.365571
0.34049043 1.309067 4.2851872
0.36149257 1.3290482 4.2839594
0.36001644 1.3251637 4.2391152
0.33108944 1.3370967 4.2376757
0.32793754 1.3514868 4.2223315
0.31106654 1.3650368 4.1603222
0.29146251 1.4358816 4.1446357
0.31427625 1.4357221 4.110641
0.2853671 1.4176856 4.0676208
0.32323992 1.4370764 4.0409155
0.31891206 1.4723016 4.0392041
0.29671353 1.4468179 3.9947844
0.28215888 1.4675516 3.9922478
0.29126889 1.5038085 3.9743826
0.28457275 1.4870936 3.9232557
0.31789756 1.5293548 3.8988252
0.2876803 1.5057379 3.8879194
0.31647599 1.5397804 3.8502531
0.30882075 1.5323826 3.8217795
0.2914564 1.5274614 3.7836387
0.2772643 1.5548457 3.7537096
0.26693955 1.6183387 3.7543175
0.27469498 1.5711298 3.7217121
0.28158328 1.5855539 3.6689451
0.35942793 1.0417314 4.9773626
0.3947835 1.045386 4.923758
0.38605767 1.0342547 4.8905902
0.37096137 1.0676777 4.8702455
0.364737 1.0352182 4.7868419
0.36205462 1.074463 4.756546
0.37931862 1.1277376 4.7086873
0.40158516 1.1325473 4.7073927
0.35890844 1.1573943 4.7331371
0.35567981 1.1551684 4.6096597
0.37712935 1.1962092 4.5994744
0.32977378 1.2229687 4.5644884
0.34582421 1.202247 4.5393739
0.368855 1.2342592 4.4606152
0.347808 1.2913191 4.4669485
0.3332063 1.2805597 4.4173455
0.3327843 1.2489051 4.4081817
0.30919617 1.2913978 4.3613749
0.30277836 1.3001633 4.3680935
0.35417351 1.2974123 4.2689605
0.30036604 1.383795 4.2925205
0.34540674 1.3284324 4.2566309
0.30840585 1.3790883 4.2156906
0.33711949 1.3608869 4.1851387
0.31535402 1.3843422 4.1364255
0.32007584 1.4071656 4.1399016
0.29856929 1.3951684 4.112134
0.34086013 1.4622059 4.0984049
0.31370541 1.4546484 4.039237
0.33442369 1.46718 3.9980798
0.33856022 1.473693 4.009161
0.26020589 1.4546987 4.0010958
0.29006925 1.4724727 3.9892728
0.31930453 1.5153168 3.9585373
0.3183355 1.5177413 3.8737926
0.28805238 1.5407192 3.836895
0.3225877 1.5500081 3.8066025
0.31688493 1.5228529 3.8140666
0.30342001 1.5497807 3.8128757
0.27551433 1.5972967 3.7427838
0.31025478 1.583147 3.7788105
0.24943256 1.6208735 3.7388074
0.41619304 1.0073997 4.9626288
0.3708744 1.0733007 4.9501452
0.40033236 1.0593598 4.9278727
0.38653609 1.0616649 4.8672423
0.39123726 1.027216 4.8032465
0.35407317 1.1124874 4.8007512
0.36212391 1.1007906 4.7313766
0.38355201 1.136678 4.7265015
0.38894019 1.1505848 4.6939006
0.42367494 1.1550103 4.6645579
0.37805328 1.2081749 4.5980697
0.36985344 1.2233086 4.5762734
0.35614738 1.1884975 4.5320621
0.38541171 1.2385235 4.50246
0.3574613 1.2093139 4.4727654
0.35162765 1.2829856 4.4124823
0.36197656 1.2715025 4.4191999
0.34418485 1.2697937 4.3810406
0.37099898 1.3156468 4.3591418
0.31689453 1.3369989 4.2915325
0.33450475 1.314585 4.2849584
0.34907714 1.3292305 4.2279553
0.30729291 1.367066 4.2407851
0.32861888 1.3780373 4.1760163
0.30003411 1.351068 4.1866202
0.35162094 1.4123621 4.1396413
0.35410213 1.420349 4.0526791
0.31288362 1.4643155 4.0902014
0.30667794 1.4645288 4.0598636
0.31223869 1.4298502 4.0269895
0.31814253 1.438089 4.004324
0.28571156 1.4645952 3.9713032
0.29761344 1.469704 3.9530914
0.29919857 1.4901133 3.9038911
0.26062095 1.5222 3.8941512
0.3253819 1.5249608 3.8853142
0.2901901 1.5079092 3.8578424
0.3088901 1.5409367 3.8183234
0.29336926 1.565326 3.785805
0.30230203 1.5509241 3.759933
0.29923397 1.5640391 3.7393606
0.29845268 1.5978652 3.6900063
0.43011329 1.0163288 5.0026417
0.40446672 1.023858 4.9376354
0.3969228 1.0592365 4.9252362
0.41306067 1.0517973 4.878684
0.36931533 1.0691062 4.8127093
0.37348738 1.1024488 4.813108
0.36732298 1.1060246 4.7225537
0.39784968 1.1317638 4.7426338
0.40878382 1.1553557 4.6680474
0.34981582 1.1655003 4.6718593
0.38737154 1.154184 4.62813
0.34308878 1.2120061 4.5721798
0.31305614 1.2464423 4.5688958
0.33844158 1.219647 4.5323825
0.32543546 1.2599466 4.4474716
0.37519863 1.2375544 4.4410186
0.38417688 1.2853054 4.44314
0.35889837 1.2884305 4.4068484
0.37450802 1.3243736 4.3542361
0.34452468 1.3333851 4.3107476
0.35350841 1.3297505 4.293663
0.35447773 1.3295151 4.2788653
0.31286854 1.3110207 4.2152152
0.3635205 1.3575388 4.2214079
0.38940749 1.3730496 4.1757464
0.33411756 1.3891932 4.1572423
0.32991838 1.4367129 4.145793
0.33416075 1.4010212 4.1301656
0.34419447 1.4542068 4.0418639
0.30877498 1.4827715 4.039516
0.31977981 1.4695523 4.0122318
0.33174133 1.4654336 3.9572835
0.31821051 1.4925747 3.9728966
0.30516818 1.4960529 3.9090526
0.28697672 1.5365499 3.8788915
0.33275473 1.512695 3.8923941
0.29035804 1.5343697 3.8694563
0.31441158 1.5425723 3.8607774
0.29900661 1.555596 3.8151855
0.34680304 1.5613428 3.8205359
0.26754048 1.5687903 3.7975922
0.27995801 1.6088307 3.7477446
0.26482764 1.5823181 3.7334199
0.39438248 1.0293899 4.9528713
0.37408376 1.0287137 4.9287286
0.39757586 1.0639337 4.8668556
0.37727833 1.0476911 4.8785014
0.39237121 1.0707268 4.7743464
0.39010081 1.1054395 4.7465425
0.39053437 1.1637727 4.7112188
0.35850492 1.1645775 4.7473273
0.37035394 1.1558579 4.6439104
0.37564811 1.1919141 4.6187572
0.41982269 1.1429989 4.595439
0.37736261 1.1789722 4.5565467
0.37461707 1.2380904 4.523047
0.35823828 1.2302673 4.4787498
0.36764956 1.2299914 4.4488873
0.36423263 1.2253511 4.4254928
0.35246995 1.2669513 4.4022999
0.34279007 1.303919 4.3994651
0.33611473 1.33285 4.3532791
0.34826681 1.3349166 4.3230891
0.35855028 1.3220767 4.2875247
0.34606934 1.327588 4.2358661
0.3692691 1.3311814 4.2001996
0.35692096 1.3496119 4.1899195
0.37822667 1.3781991 4.1515818
0.3337698 1.4009267 4.1182537
0.32055616 1.4341819 4.0553689
0.33585724 1.4265575 4.0847278
0.34445429 1.4439825 4.0591927
0.31973147 1.4380499 4.0130749
0.31194794 1.4609568 3.9888585
0.34293219 1.4468293 3.9841001
0.34412929 1.4728652 3.9210627
0.26611859 1.4823234 3.927007
0.30386522 1.4807328 3.8759851
0.34264284 1.5363766 3.833842
0.32820624 1.5387026 3.8577833
0.31077203 1.5339888 3.8011742
0.29382691 1.5408421 3.7276394
0.29314786 1.6366392 3.7459567
0.29595974 1.6098334 3.7315705
0.30705056 1.6095834 3.7074873
0.39764741 1.0277773 4.9846196
0.41684666 1.0402635 4.9503064
0.41739678 1.0500538 4.9127393
0.43840817 1.0688409 4.8550615
0.42016324 1.0714381 4.839704
0.38647777 1.1158181 4.7824173
0.39942792 1.1018677 4.7482538
0.40030175 1.1537298 4.6998568
0.40543234 1.1465682 4.6773272
0.38329548 1.204649 4.6410933
0.39184916 1.2035769 4.5936427
0.3327055 1.1742464 4.6009789
0.39028451 1.2087524 4.512434
0.39874852 1.2607089 4.5380087
0.38303769 1.2522407 4.4839668
0.38825297 1.2466968 4.4434042
0.33481446 1.2735617 4.3892245
0.34551853 1.3242207 4.3691549
0.37058288 1.3264798 4.3172307
0.36332983 1.3236235 4.2801256
0.35907671 1.319047 4.2763948
0.34808639 1.3281736 4.2496924
0.34787273 1.372507 4.2456532
0.39588523 1.3615113 4.1690454
0.34596857 1.4043984 4.2196932
0.33599743 1.3708488 4.1443062
0.35099015 1.4008813 4.1143427
0.33137342 1.4241667 4.1014466
0.33877546 1.4462603 4.0535426
0.3355777 1.4206679 4.0422468
0.34791771 1.4287874 4.0157909
0.34279832 1.4754761 3.9818058
0.31644025 1.436204 3.9098828
0.34599495 1.4545457 3.9073734
0.33453122 1.4812639 3.8966589
0.30835044 1.5085438 3.8994248
0.32480636 1.5199869 3.8611667
0.30361351 1.5527619 3.8390923
0.30770293 1.5427994 3.8075795
0.32781196 1.5458971 3.7855313
0.30595008 1.5871456 3.7581778
0.33561879 1.622649 3.7462296
0.43455827 1.0205971 5.008431
0.43094933 1.0221928 4.9598832
0.43733287 1.0582453 4.9394989
0.41525331 1.0471994 4.8844934
0.40461755 1.0857897 4.8460689
0.39365816 1.1317279 4.7694106
0.37192434 1.1581528 4.7398186
0.3927581 1.1425349 4.7360835
0.39211923 1.1326563 4.718646
0.43138486 1.1662132 4.6832623
0.41972238 1.1724519 4.5933046
0.43520251 1.1708739 4.5966406
0.40140441 1.2761567 4.5902748
0.37581205 1.2124527 4.481204
0.39235625 1.2379552 4.4921813
0.4025332 1.2692982 4.4443078
0.40488955 1.2737094 4.4241357
0.35546103 1.2832748 4.3789358
0.36625323 1.3048912 4.3676944
0.41334674 1.3224378 4.3125215
0.36950335 1.3145047 4.3082476
0.34845203 1.3258939 4.2786016
0.34758216 1.3849583 4.223906
0.32839543 1.376642 4.2102509
0.35954359 1.3847907 4.1928892
0.32800058 1.3726081 4.1502891
0.33642191 1.4118592 4.1452236
0.3406994 1.3688986 4.0994291
0.34505185 1.4631807 4.0596294
0.35684276 1.4443713 4.0512567
0.34477198 1.4877187 4.0098739
0.35768294 1.497878 4.0152273
0.33923316 1.4982845 3.9949181
0.33677781 1.4470048 3.9267855
0.33465043 1.516112 3.8895099
0.31979838 1.5242703 3.8703649
0.28195497 1.5070226 3.853317
0.30883807 1.5367732 3.8233817
0.3096602 1.5513364 3.8053508
0.32930526 1.5908227 3.739511
0.32991394 1.5898243 3.7518938
0.32173812 1.6118675 3.7311985
0.34166753 1.574319 3.7111092
0.42786524 1.0240654 4.971108
0.45185649 1.0508534 4.922308
0.41736677 1.025318 4.8699541
0.45388249 1.0185206 4.8463249
0.42806932 1.0887344 4.8019481
0.43502215 1.0893708 4.7682858
0.39089757 1.1315037 4.715826
0.41626316 1.1276833 4.7320127
0.40616909 1.1287948 4.6785145
0.41369009 1.1551672 4.5937481
0.38248983 1.1874101 4.5946589
0.36212468 1.1749375 4.5656066
0.36032912 1.2275559 4.5088339
0.40734911 1.2260244 4.5061164
0.36334738 1.2446177 4.4594364
0.41676778 1.2731035 4.4470534
0.39579022 1.2678461 4.3926897
0.39367864 1.2963594 4.3535757
0.37589025 1.2853967 4.3322606
0.36131403 1.3180823 4.2675877
0.39610282 1.3337948 4.2752247
0.40807885 1.3431418 4.2291331
0.38099065 1.369881 4.1972694
0.37696779 1.3774151 4.1825948
0.37851912 1.3779188 4.1515908
0.37274662 1.419443 4.1303225
0.39294308 1.4532551 4.1012664
0.37279683 1.4335818 4.0711961
0.37711802 1.4645127 4.0821233
0.38036343 1.4572469 3.9995105
0.32974789 1.4524634 3.9889274
0.33295143 1.5146561 3.9629247
0.33660728 1.4690961 3.9562888
0.35740206 1.4443098 3.9328003
0.33415082 1.5521891 3.8849101
0.32435885 1.5142677 3.8863304
0.32930097 1.5675434 3.8869562
0.31759933 1.5324161 3.8301685
0.33345428 1.5408357 3.7913737
0.30795804 1.5969696 3.7750826
0.31293824 1.5696737 3.7326825
0.31894675 1.5432763 3.7491419
0.45592675 0.99894506 4.9733152
0.43484703 1.0493109 4.9442496
0.44082266 1.0107962 4.8946691
0.43705434 1.0582455 4.8746805
0.43005067 1.0727228 4.8396993
0.40835997 1.0560683 4.7592535
0.42571723 1.1255106 4.7693305
0.43528122 1.1614845 4.7310681
0.40345955 1.1615686 4.6757407
0.42305383 1.2190889 4.6378675
0.42603713 1.18872 4.6313934
0.40561745 1.2075539 4.5671473
0.38248521 1.2008746 4.5722656
0.40500224 1.2120217 4.5010562
0.37410128 1.2399035 4.4742484
0.38923457 1.2432666 4.4281969
0.39272559 1.2855803 4.440227
0.40323126 1.2634808 4.363276
0.43154836 1.294799 4.3938608
0.39321166 1.3112091 4.3413839
0.37632182 1.3243595 4.3217783
0.38397968 1.3210596 4.2328696
0.36552659 1.3429834 4.2724581
0.34964195 1.352504 4.2084122
0.3562842 1.3790666 4.1970468
0.38052443 1.3836957 4.1326566
0.37994546 1.3904034 4.1168628
0.37907913 1.419359 4.0739355
0.38218471 1.4390464 4.0822372
0.37748268 1.4357467 4.0153213
0.36633879 1.4744543 3.9927142
0.36635584 1.4573859 3.9968178
0.34965602 1.5113287 3.9815938
0.33197796 1.5102828 3.9307332
0.31243223 1.5448228 3.9219046
0.40404758 1.5146574 3.8883808
0.37299606 1.5340714 3.8301756
0.30366391 1.5336815 3.8426523
0.32233411 1.5611761 3.8285637
0.35996878 1.5913457 3.7950397
0.3502149 1.5908558 3.7653248
0.3331489 1.6113949 3.7296653
0.45316416 0.98364013 4.9840693
0.4159404 1.0268489 4.9377351
0.48650205 1.080893 4.8846378
0.41137505 1.0405754 4.8060479
0.47037756 1.0431203 4.8543348
0.44693887 1.0826108 4.7881913
0.44191867 1.0877614 4.735693
0.49221501 1.1455656 4.7082548
0.38769901 1.1686119 4.6838241
0.44251558 1.1597542 4.6777916
0.41757372 1.2010152 4.6407142
0.46165574 1.1817262 4.5870609
0.41717467 1.1696776 4.5645809
0.4396306 1.2011663 4.5062189
0.37633568 1.247541 4.4733143
0.38877314 1.2866642 4.457469
0.38455865 1.2892586 4.3784747
0.3702825 1.2904787 4.3507924
0.39880818 1.3155524 4.3276162
0.39576039 1.3168694 4.3402567
0.39378724 1.3727711 4.2982626
0.39779958 1.3355048 4.2877493
0.39767998 1.3205539 4.216383
0.37920439 1.3862628 4.1930861
0.38545981 1.3548982 4.1712894
0.36065596 1.4052954 4.1207762
0.37949696 1.4197091 4.1239905
0.38121516 1.4158713 4.0980477
0.37534189 1.4501771 4.0613475
0.36707503 1.4314519 4.0354643
0.32459304 1.4371046 3.9927809
0.38338509 1.4712377 3.9593096
0.37573203 1.4956895 3.9944863
0.38146105 1.4647998 3.9636233
0.32580456 1.5218519 3.9155509
0.36629063 1.5254689 3.889657
0.36073053 1.5282986 3.8450253
0.36392352 1.5454082 3.8140314
0.31839627 1.5243411 3.8261218
0.39049304 1.5390893 3.7804749
0.34510228 1.5517242 3.742399
0.31553218 1.5708125 3.729152
0.33352101 1.6025155 3.725965
0.45992866 1.0081302 4.9633007
0.46312824 1.0337192 4.9370093
0.47666615 1.0443561 4.8739476
0.44996831 1.0795865 4.8425856
0.46861592 1.0926948 4.8198643
0.45416617 1.0899738 4.7824721
0.4252516 1.1129868 4.7546568
0.43092889 1.1282606 4.7196789
0.45050552 1.1629094 4.6593547
0.43041134 1.173147 4.6280861
0.39955086 1.2231905 4.5644536
0.40440539 1.2115688 4.5327363
0.43013883 1.2082597 4.5312896
0.44973743 1.2207626 4.4895673
0.42064497 1.228153 4.4465475
0.40819967 1.2662928 4.4324384
0.3876819 1.2783891 4.4246864
0.35528275 1.3155992 4.3808742
0.41501394 1.3092909 4.3733182
0.40354544 1.3216677 4.2874198
0.40428147 1.350738 4.3008733
0.37457466 1.3663876 4.2363691
0.40607458 1.4183409 4.2295074
0.37872696 1.382039 4.1553664
0.3672511 1.3566201 4.1298175
0.39335001 1.4099718 4.0979662
0.34805226 1.4348637 4.1192031
0.36353892 1.4680547 4.043189
0.348059 1.42193 4.0235057
0.36219528 1.4695377 4.0226068
0.3987686 1.4419569 4.0176868
0.37477431 1.478114 3.9353054
0.34312853 1.4735357 3.9231837
0.3810825 1.5574678 3.9443617
0.38702634 1.5231673 3.879916
0.36071172 1.5712178 3.8461797
0.38338608 1.5465708 3.7850926
0.33928975 1.547506 3.7989206
0.34446186 1.5686796 3.8073235
0.33000472 1.5802774 3.7883687
0.32550752 1.5817822 3.7370858
0.32625943 1.6057562 3.7209437
0.49109948 0.97733897 4.9597187
0.39712277 1.0201235 4.929389
0.48840588 1.0549504 4.8628039
0.47025794 1.0696623 4.8298616
0.45633897 1.0821632 4.8481841
0.4325428 1.1041698 4.8148913
0.46509442 1.11941 4.7431011
0.44865042 1.1334527 4.6892715
0.42272305 1.1488762 4.6909184
0.43218043 1.1561465 4.6327591
0.41477311 1.2013801 4.6128082
0.46184638 1.1582597 4.5738239
0.42979571 1.2142311 4.5288415
0.4232941 1.2298709 4.4745703
0.43460962 1.2405456 4.4754119
0.4117426 1.2474129 4.430016
0.39059907 1.2886994 4.4076843
0.44738191 1.3138839 4.3516016
0.44545585 1.2787058 4.3540688
0.40576768 1.3254946 4.31603
0.39893118 1.3430568 4.2799821
0.40712166 1.3442235 4.264782
0.39872375 1.3364338 4.2729263
0.39771307 1.3973174 4.2427125
0.35281652 1.4140286 4.187407
0.398927 1.3955622 4.119194
0.40123904 1.3868263 4.1143498
0.37583545 1.4211379 4.0813322
0.36984068 1.3998262 4.0355101
0.38890082 1.4355167 4.0100536
0.39055353 1.4525822 4.0101848
0.36698076 1.4936324 4.0163817
0.35100228 1.4922976 3.9426401
0.36330765 1.5003844 3.9522119
0.36170056 1.5290027 3.9122932
0.33612311 1.5350415 3.9078152
0.3773022 1.565081 3.8589041
0.37934753 1.5895816 3.8432314
0.32973817 1.561939 3.7918389
0.33689287 1.5841908 3.7824354
0.35105363 1.5864936 3.7478559
0.31379116 1.5955061 3.7459807
0.50261045 1.0238085 4.983304
0.45432073 1.0246464 4.9610734
0.49127501 1.0596911 4.8880119
0.45278829 1.0297121 4.8939691
0.44030133 1.0578132 4.8473454
0.46854827 1.0968404 4.8055577
0.4598752 1.1252246 4.7948799
0.47073343 1.1400081 4.7552543
0.47639427 1.130609 4.7120872
0.47583044 1.1501502 4.6430955
0.45071188 1.1724286 4.6414165
0.44862515 1.1836982 4.563097
0.418641 1.1950985 4.5385289
0.44566798 1.2236686 4.514112
0.44065106 1.2250637 4.4900231
0.4270044 1.2805134 4.4369779
0.44114488 1.2910231 4.4141951
0.43631348 1.3088448 4.3762102
0.40729529 1.3192962 4.368082
0.41917753 1.3293785 4.2950139
0.43346271 1.3218431 4.288383
0.38902661 1.3147265 4.286263
0.39143747 1.3227123 4.2162228
0.40514594 1.3544393 4.2007833
0.4214997 1.3759065 4.1703753
0.40115577 1.4225538 4.1348195
0.39386195 1.3945615 4.134501
0.40335172 1.4500166 4.0711398
0.38601631 1.4261913 4.0799303
0.40186021 1.4567713 4.0641294
0.40622953 1.4575293 4.0528574
0.42185599 1.4865655 3.9983325
0.4068633 1.4758356 3.946312
0.33876669 1.5106155 3.9095833
0.39109856 1.5205326 3.88044
0.4000386 1.490131 3.8395483
0.37800476 1.5312872 3.8460524
0.37673485 1.541502 3.832912
0.35658574 1.5490265 3.8056562
0.36311188 1.5514885 3.7634113
0.33209637 1.599465 3.7494164
0.37810293 1.6220591 3.7402942
0.35212356 1.6149218 3.7366965
0.49086687 1.009933 4.9749947
0.5189904 1.0386056 4.9064879
0.46258414 1.0606153 4.8784947
0.4935964 1.0808583 4.8353453
0.44805637 1.0875691 4.7977414
0.48950934 1.1240672 4.7528653
0.46181482 1.1542687 4.7450171
0.46940297 1.112726 4.7296319
0.47118631 1.133393 4.639997
0.48900953 1.2009261 4.6060882
0.43555719 1.1970406 4.5901656
0.45583296 1.2181799 4.5683661
0.48836675 1.2120556 4.4952774
0.46612427 1.233606 4.5270276
0.4311876 1.2375764 4.4531994
0.43176466 1.2602067 4.4549508
0.44260296 1.3040363 4.3962274
0.42034701 1.2857566 4.3792052
