# .PCD v0.7 - Point Cloud Data file format
VERSION 0.7
FIELDS x y z
SIZE 4 4 4
TYPE F F F
COUNT 1 1 1
WIDTH 1472
HEIGHT 1
VIEWPOINT 0 0 0 1 0 0 0
POINTS 1472
DATA ascii
-1.3428996 -0.082262881 2.8560932
-2.3742032 0.92386025 4.9806762
-2.3548825 0.92514288 4.9658003
-2.3211632 0.96160513 4.890162
-2.2949462 0.98186505 4.8620987
-2.3018026 0.98152775 4.8155627
-2.2605596 1.0171746 4.7722745
-2.2689767 1.0431042 4.7453012
-2.2450223 1.0500501 4.7179608
-2.2363579 1.0888841 4.6685176
-2.2016394 1.0820241 4.6180577
-2.214493 1.0960534 4.6012645
-2.153724 1.1225456 4.583334
-2.1631815 1.1284738 4.5387435
-2.1381412 1.1638552 4.5052853
-2.1206067 1.1613101 4.4883475
-2.1137969 1.1712487 4.4396753
-2.0924985 1.2102234 4.4156775
-2.0778534 1.2183722 4.3753929
-2.0618324 1.2106186 4.3479147
-2.048768 1.2248214 4.3269677
-2.0492709 1.2652961 4.2683554
-2.0284653 1.265588 4.2598934
-1.9985753 1.2936348 4.2439671
-2.0005181 1.2989118 4.1835103
-1.983494 1.3134428 4.1679277
-1.9804926 1.3131208 4.1589532
-1.9700836 1.342553 4.1302853
-1.9267564 1.3374233 4.1051068
-1.9301554 1.3639773 4.0614576
-1.896507 1.3819864 4.0427976
-1.9120389 1.396402 3.9961352
-1.9013654 1.4173928 3.977973
-1.8903544 1.4057903 3.9522355
-1.8557154 1.4266274 3.9392953
-1.8577119 1.4537354 3.9020419
-1.8457973 1.4473385 3.903199
-1.8267151 1.4631135 3.862488
-1.8169137 1.4775311 3.837116
-1.8052931 1.49422 3.8256071
-1.7773356 1.4945496 3.7731235
-1.7927853 1.5197511 3.7536225
-1.7784678 1.5274309 3.7392962
-1.7513884 1.5208646 3.7063398
-1.7617495 1.545967 3.7001991
-1.7366968 1.5577207 3.6765227
-1.7377063 1.5769105 3.652077
-1.3765725 -0.42307886 2.9136806
-1.3648109 -0.41135171 2.8798721
-1.3582717 -0.3853507 2.8507783
-1.3478069 -0.37279198 2.8265514
-1.3648498 -0.36286396 2.8228152
-1.3324356 -0.3339498 2.8004436
-1.3383471 -0.31672299 2.801873
-1.3329476 -0.32437548 2.8126383
-1.3544298 -0.28949246 2.7809696
-1.3412641 -0.27800599 2.7858889
-1.3274387 -0.2656523 2.8125846
-1.2939911 -0.24800971 2.7948811
-1.3059809 -0.22837658 2.7843235
-1.3126051 -0.22377875 2.7944183
-1.3179402 -0.22154038 2.7965064
-1.3204169 -0.19915275 2.7843332
-1.3077489 -0.17412598 2.8088329
-1.3278747 -0.1552742 2.8079243
-1.3198444 -0.14508131 2.8074775
-1.3321137 -0.1279664 2.8058112
-1.3465379 -0.10576723 2.8133414
-1.354018 -0.083091065 2.8285944
-1.3474478 -0.081727393 2.8381226
-1.3423263 -0.074481666 2.8252027
-1.37556 -0.058787365 2.8740621
-2.3717251 0.92564082 4.9930696
-2.3532932 0.94074106 4.9424191
-2.3227501 0.97312808 4.9187331
-2.3082206 0.9662596 4.8701544
-2.3120639 0.96751213 4.8312731
-2.2703614 0.9940334 4.8077278
-2.2621248 1.0273256 4.7541575
-2.2393575 1.0330642 4.7444978
-2.2204306 1.0627211 4.6926131
-2.2056351 1.0784413 4.640698
-2.1903276 1.1058407 4.610208
-2.1669815 1.1295019 4.5884924
-2.1661179 1.1428505 4.5607085
-2.1605136 1.1509978 4.5160666
-2.1361375 1.1473309 4.4860139
-2.1163819 1.1785778 4.4544597
-2.1000724 1.2002171 4.4256611
-2.090349 1.2053952 4.380352
-2.0557024 1.20274 4.360817
-2.047821 1.2412463 4.3492937
-2.0438867 1.2401702 4.2974653
-2.0133669 1.2683222 4.2735848
-2.0034847 1.2715491 4.234704
-1.9906937 1.2998791 4.2160444
-1.9841099 1.3055503 4.1875334
-1.968871 1.3151599 4.146667
-1.9495167 1.3530514 4.1314354
-1.9622543 1.3505204 4.1028194
-1.9240859 1.3602222 4.0816288
-1.9135513 1.3864545 4.0495167
-1.9048982 1.3991284 4.0124173
-1.87854 1.3978715 3.9914792
-1.8666917 1.4095122 3.9678359
-1.8718491 1.4279863 3.9214082
-1.8482336 1.4476357 3.9179711
-1.8206047 1.4434941 3.8926826
-1.8268166 1.4588629 3.8650818
-1.8065256 1.4752706 3.8437386
-1.8067882 1.483597 3.8177073
-1.7927338 1.4954346 3.7916625
-1.7716157 1.4937129 3.7757823
-1.7630903 1.4936838 3.7373669
-1.7645587 1.5276014 3.7180822
-1.7433004 1.5175825 3.6919003
-1.7486639 1.5516038 3.684489
-1.7387992 1.5551137 3.659692
-1.3613033 -0.40252933 2.891104
-1.3365682 -0.38784215 2.8497438
-1.3345103 -0.37003633 2.8219912
-1.3265166 -0.35642555 2.8174801
-1.3364048 -0.35330322 2.8067515
-1.335441 -0.3382166 2.8120275
-1.3442096 -0.31411141 2.7942388
-1.3221881 -0.29405802 2.8003118
-1.333002 -0.27736163 2.8064487
-1.3307176 -0.26142624 2.7950838
-1.3245051 -0.25214234 2.7847896
-1.2972522 -0.23414882 2.7952311
-1.3215077 -0.22014734 2.7860532
-1.3201139 -0.21595627 2.8045397
-1.3073566 -0.1874112 2.7979412
-1.3250309 -0.16964836 2.7956169
-1.3123884 -0.15570353 2.7965493
-1.3349487 -0.14992522 2.8143873
-1.3236061 -0.12111532 2.8014402
-1.3459401 -0.11205939 2.8145931
-1.3174413 -0.0833731 2.8366351
-1.3425833 -0.076071069 2.8426158
-1.3293142 -0.055453841 2.8469834
-1.3682824 -0.048381336 2.8761208
-1.3753338 -0.035231236 2.8908489
-1.3694949 -0.025917131 2.906955
-2.3447533 0.92637575 4.9651213
-2.3248482 0.95099336 4.9356556
-2.316983 0.95206881 4.893158
-2.2926338 0.99086452 4.8581934
-2.2693939 1.0085554 4.8133702
-2.2397873 1.0132504 4.769978
-2.2349226 1.0460116 4.7372751
-2.2097387 1.0508475 4.6927824
-2.1985991 1.0668015 4.6771283
-2.1738391 1.0691246 4.6366663
-2.161479 1.1065483 4.5993156
-2.1523836 1.1121111 4.5641913
-2.1384585 1.1434443 4.5230846
-2.1233306 1.1695112 4.5023899
-2.1103325 1.1712996 4.4526615
-2.0913994 1.195021 4.4164929
-2.0813665 1.1937553 4.3969512
-2.0465968 1.2217903 4.3623624
-2.0552156 1.2135032 4.3404865
-2.0165272 1.2496626 4.3097677
-1.9985051 1.2472107 4.2857475
-1.9848869 1.2845843 4.2453547
-1.9822948 1.2911503 4.2051287
-1.9869411 1.2897799 4.1875172
-1.9778957 1.3205281 4.1656389
-1.965676 1.3464881 4.1367517
-1.9361546 1.3439391 4.1247759
-1.935612 1.3449383 4.079504
-1.9228864 1.3692751 4.0467238
-1.8969303 1.3821124 4.0321741
-1.8922588 1.388961 3.999685
-1.874117 1.4099469 3.9851937
-1.8631182 1.4171319 3.9510667
-1.8548919 1.4361424 3.9363294
-1.861186 1.4555115 3.9004326
-1.8339834 1.4544576 3.8635726
-1.8291143 1.4658368 3.8533564
-1.8165319 1.4718486 3.8171692
-1.7819582 1.4894111 3.7973285
-1.7716832 1.5006442 3.7742398
-1.7798063 1.522294 3.7596395
-1.7547253 1.5156065 3.7434561
-1.7630324 1.5370711 3.6971819
-1.7327305 1.5407888 3.6962092
-1.7390187 1.561873 3.6520348
-1.3425635 -0.40062213 2.8512878
-1.3337834 -0.38224626 2.8488176
-1.324985 -0.34540468 2.8148348
-1.3004839 -0.3269757 2.8113787
-1.3277819 -0.3165291 2.8083713
-1.3027959 -0.29799008 2.8031352
-1.3129071 -0.31298169 2.7968681
-1.3125652 -0.28383926 2.7774339
-1.3110034 -0.25986469 2.785465
-1.3093069 -0.24252276 2.7861431
-1.3056362 -0.23618856 2.7923164
-1.3026837 -0.21973716 2.7842219
-1.3285942 -0.19261821 2.7816472
-1.3150015 -0.19006945 2.784771
-1.3247041 -0.16559605 2.8096266
-1.3242934 -0.15021001 2.7974999
-1.3307545 -0.12977305 2.7900391
-1.327226 -0.13919854 2.8127677
-1.3224128 -0.11856388 2.8120749
-1.3499088 -0.11853233 2.8244982
-1.3439447 -0.09739133 2.832911
-1.341352 -0.071326248 2.8574047
-1.3442652 -0.056914527 2.8692234
-1.349589 -0.04235173 2.8904088
-1.38062 -0.019133976 2.9276943
-2.3347175 0.91577971 4.998178
-2.3239348 0.92903405 4.9457927
-2.2905676 0.96275789 4.913672
-2.2836549 0.97151726 4.872086
-2.2703269 0.98311782 4.8358626
-2.2563233 1.0318755 4.7954788
-2.2524509 1.0205262 4.7557826
-2.2256951 1.043727 4.7117758
-2.1943314 1.049045 4.6788359
-2.1761363 1.0814658 4.6584024
-2.1734769 1.1088936 4.6197
-2.1580684 1.1105005 4.5776539
-2.1482742 1.1396145 4.5630908
-2.1548953 1.1529273 4.524363
-2.1091104 1.1387544 4.4901652
-2.0883377 1.1717947 4.4736838
-2.0786438 1.1963934 4.4424229
-2.0600312 1.1985631 4.3926554
-2.0472441 1.2274143 4.353827
-2.0259044 1.2402307 4.3252993
-2.0125058 1.248576 4.3116288
-2.0074663 1.2534366 4.2716055
-1.9930598 1.2804271 4.2490149
-1.9674283 1.2920443 4.2122407
-1.9650935 1.3196313 4.1716695
-1.9546344 1.3052503 4.1566043
-1.9429806 1.3420306 4.1373429
-1.9382418 1.3512206 4.1037879
-1.9019365 1.3534608 4.0650139
-1.8875675 1.3613497 4.0314541
-1.9084984 1.4073099 4.0349417
-1.8652394 1.4191725 3.9870074
-1.852827 1.4084622 3.9591694
-1.8567301 1.4240611 3.9309912
-1.8419133 1.4539808 3.8890853
-1.8165863 1.4524788 3.8890524
-1.8224436 1.4612533 3.852562
-1.7866988 1.4834141 3.8419669
-1.80678 1.4994261 3.821938
-1.771462 1.5017958 3.7886488
-1.7797843 1.4966581 3.7777479
-1.7550982 1.5346248 3.7370253
-1.7555608 1.5271338 3.7509041
-1.7515305 1.5436388 3.6919422
-1.7313843 1.559516 3.6789594
-1.7325438 1.5480398 3.6489797
-1.3683159 -0.38813981 2.9580824
-1.3353832 -0.3556487 2.8298016
-1.3203397 -0.33245838 2.8321545
-1.3331062 -0.31370422 2.8235145
-1.329561 -0.306936 2.8204644
-1.2964286 -0.30438104 2.7968509
-1.3048826 -0.29084736 2.7958553
-1.3101373 -0.27024329 2.8041403
-1.3198977 -0.25604784 2.7965391
-1.289126 -0.24437641 2.7943482
-1.2983141 -0.21572474 2.795716
-1.3069153 -0.21874952 2.7882211
-1.2927606 -0.18583857 2.7935028
-1.3153026 -0.18054664 2.8129117
-1.3058311 -0.1581856 2.8017642
-1.3205556 -0.13393262 2.8114979
-1.3194381 -0.13585334 2.8134384
-1.3329921 -0.11444286 2.8343821
-1.3393155 -0.10226202 2.8404202
-1.3307325 -0.089134648 2.8419554
-1.3528345 -0.091752604 2.862606
-1.3520479 -0.054745745 2.8736885
-1.371521 -0.058886945 2.883158
-1.3916793 -0.02476627 2.9342923
-2.3236101 0.90283287 4.9988527
-2.3290069 0.93656462 4.9535017
-2.3062468 0.95798469 4.9179416
-2.2820265 0.98073256 4.8675771
-2.2594409 0.98189902 4.8310533
-2.2597568 1.0041009 4.7881546
-2.216593 1.0216995 4.7661443
-2.2269757 1.0393592 4.7165074
-2.1993818 1.0750576 4.69064
-2.1727974 1.0666322 4.6581945
-2.1676345 1.0956711 4.6168504
-2.1473601 1.1188747 4.59377
-2.1477382 1.120886 4.5431962
-2.1067662 1.158433 4.4966006
-2.0862229 1.1548048 4.4917583
-2.0820003 1.1491843 4.4613614
-2.063225 1.1883186 4.4140987
-2.0401268 1.1989951 4.3731937
-2.0426733 1.2243962 4.3550959
-2.0176325 1.2512472 4.3322902
-2.0025802 1.2635809 4.3013458
-2.0091934 1.2779441 4.2589035
-1.9644022 1.2885426 4.2429099
-1.9612552 1.3079606 4.2084103
-1.9524198 1.3040329 4.1870241
-1.9366621 1.3317517 4.1412435
-1.9327368 1.3373922 4.135139
-1.9127944 1.3590015 4.1182337
-1.8998736 1.3710572 4.0836692
-1.8906192 1.3785534 4.0443025
-1.8584346 1.3772465 4.0311155
-1.8815626 1.3919965 3.9967351
-1.8688769 1.4101946 3.9590635
-1.8440212 1.4240555 3.9551978
-1.8299985 1.4565372 3.9186523
-1.834391 1.4450575 3.8886046
-1.8064249 1.482345 3.8689573
-1.7939267 1.4870492 3.8326933
-1.7825288 1.4866956 3.820647
-1.789036 1.4812533 3.78426
-1.7594545 1.5075593 3.7832429
-1.7351552 1.5054405 3.761888
-1.7383997 1.5295552 3.7308435
-1.7485877 1.5420951 3.6985769
-1.7388493 1.5398724 3.6743219
-1.7058383 1.571533 3.6650066
-1.37761 -0.40022817 2.9442599
-1.3322399 -0.36786729 2.9142416
-1.3089888 -0.35417506 2.8100498
-1.3258997 -0.33199498 2.8341115
-1.3118025 -0.31669289 2.8139558
-1.300755 -0.29522079 2.8149204
-1.280486 -0.29196298 2.8080235
-1.3065773 -0.28140971 2.8079443
-1.3028175 -0.2531724 2.7892277
-1.3081983 -0.23671767 2.7803147
-1.2890413 -0.20972316 2.7923982
-1.2988619 -0.18414564 2.7883577
-1.3040788 -0.18686894 2.8037131
-1.3102566 -0.17978789 2.8091934
-1.3213615 -0.16148376 2.8039043
-1.3291267 -0.12891187 2.8169329
-1.2982378 -0.13826488 2.827956
-1.2837523 -0.10598555 2.8426178
-1.3439074 -0.088775814 2.8422287
-1.3228453 -0.091499574 2.8595855
-1.3397621 -0.097439863 2.8736854
-1.3432909 -0.055802964 2.8889627
-1.3565418 -0.051571753 2.8970406
-1.3591151 -0.023822576 2.9281979
-2.3149426 0.90387553 5.0022907
-2.3040707 0.92453551 4.9647288
-2.2867038 0.97032696 4.9304366
-2.2848935 0.96067297 4.8803048
-2.2666891 0.99434322 4.8240085
-2.233674 0.99560153 4.7992048
-2.2283669 1.0156569 4.7549481
-2.2047217 1.0394335 4.7221065
-2.1879749 1.0584685 4.7032242
-2.1676848 1.0890238 4.6253786
-2.1697335 1.0947297 4.6349573
-2.1409807 1.0950452 4.5828733
-2.1269391 1.1428148 4.5334482
-2.1242909 1.1437351 4.5284185
-2.0855713 1.1516418 4.480608
-2.069731 1.1662748 4.4606662
-2.0707257 1.1975838 4.4009252
-2.0459044 1.2049286 4.3828526
-2.0359285 1.2234622 4.3642488
-2.0183811 1.2209927 4.333921
-2.0222716 1.2477124 4.3000751
-1.9978973 1.2442917 4.2690516
-1.9780102 1.2742535 4.2333889
-1.9622407 1.2945997 4.2057405
-1.9340209 1.3097003 4.1878438
-1.9320945 1.3176885 4.1549358
-1.9167233 1.3253086 4.1345701
-1.9202175 1.3319789 4.1002984
-1.8977783 1.3551562 4.0837736
-1.8797636 1.3583226 4.021564
-1.8895453 1.4232655 4.0259776
-1.8634812 1.403712 3.997447
-1.8432429 1.4220604 3.9607105
-1.8388722 1.4384661 3.9441624
-1.8087406 1.4518527 3.9091363
-1.8042837 1.470186 3.8996265
-1.7935693 1.4855613 3.8407314
-1.796797 1.4646962 3.8579254
-1.8009962 1.4888145 3.8183219
-1.7857035 1.4841533 3.7869003
-1.7536677 1.5100853 3.7508943
-1.7514074 1.5181507 3.7480524
-1.7278702 1.5456693 3.7214856
-1.7250494 1.5373938 3.7190094
-1.7060609 1.5557522 3.6791267
-1.7123455 1.5673196 3.6463871
-1.3800341 -0.38340217 2.9404488
-1.3510152 -0.37182888 2.9261644
-1.3382509 -0.36133999 2.9000974
-1.3568168 -0.33519438 2.8727155
-1.2936847 -0.32219702 2.8018367
-1.3032339 -0.27304363 2.7983708
-1.3008926 -0.27314654 2.8008311
-1.2984059 -0.25896534 2.7951069
-1.3172437 -0.26213419 2.7873251
-1.2884035 -0.24570084 2.7879589
-1.3022736 -0.21639971 2.8062611
-1.3218154 -0.20311101 2.7922273
-1.313803 -0.17572053 2.8050246
-1.3023083 -0.1842362 2.8115263
-1.3007033 -0.15515952 2.818316
-1.3054148 -0.14887002 2.8074911
-1.3077233 -0.14349653 2.8064919
-1.3160204 -0.12794161 2.8492112
-1.3341279 -0.11006738 2.8483222
-1.3360994 -0.080981664 2.8587143
-1.3108703 -0.060341872 2.8402958
-1.3423281 -0.060746629 2.8802855
-1.3436848 -0.039265834 2.9187829
-1.3778027 -0.019775128 2.9365807
-2.3120406 0.91304368 5.0078726
-2.2958908 0.92745596 4.9555063
-2.3020532 0.95508045 4.908216
-2.2762733 0.97743154 4.8729191
-2.2602103 1.0128332 4.8302345
-2.2397416 1.0021384 4.8052635
-2.2002532 1.0245669 4.7721524
-2.1929801 1.0389962 4.7348642
-2.1709077 1.0709333 4.6854382
-2.1657269 1.0744233 4.6477599
-2.1441295 1.0994388 4.6267357
-2.1339676 1.110866 4.5837493
-2.1250043 1.1262447 4.5619211
-2.1082029 1.1263607 4.519444
-2.0878179 1.1684567 4.4970531
-2.059375 1.1786959 4.4460258
-2.0593002 1.2116596 4.4100304
-2.0425255 1.2034349 4.3845453
-2.0055375 1.2233402 4.3824582
-2.0128405 1.2183542 4.327714
-1.9966043 1.2531233 4.2930574
-1.9791373 1.2670256 4.2638769
-1.959592 1.2817309 4.2317929
-1.9614196 1.3034658 4.2170439
-1.9207761 1.3225152 4.174356
-1.9410894 1.322346 4.1477537
-1.9035636 1.3366386 4.1244221
-1.8972286 1.3510453 4.1200747
-1.8909199 1.3856237 4.0752292
-1.8822516 1.3742486 4.0360498
-1.875268 1.3860097 4.0274544
-1.8723075 1.420095 3.9867656
-1.8366607 1.4233853 3.9631982
-1.8412752 1.4251174 3.9411252
-1.800624 1.4325961 3.9014781
-1.8183192 1.443398 3.8654685
-1.8075708 1.4550868 3.8813953
-1.7741394 1.4705431 3.867871
-1.7735533 1.494338 3.8067291
-1.7625062 1.4877079 3.7936711
-1.7614787 1.5087186 3.759599
-1.7428399 1.5109631 3.7590675
-1.7257119 1.5251701 3.7233264
-1.7246734 1.5173743 3.7083671
-1.7204664 1.5586253 3.6807752
-1.6917367 1.5498804 3.6574941
-1.3715547 -0.41053933 2.9506559
-1.3363492 -0.35653508 2.9182906
-1.3293601 -0.35599336 2.8710093
-1.3233578 -0.33806634 2.879235
-1.3492798 -0.31863987 2.8628104
-1.3033201 -0.28719851 2.8120956
-1.2808173 -0.27181867 2.8051417
-1.3066065 -0.26400784 2.8062439
-1.2946445 -0.2604554 2.8075285
-1.2813932 -0.23230773 2.8105907
-1.2895889 -0.22242701 2.7948992
-1.2914443 -0.22065219 2.7976537
-1.3059939 -0.17253201 2.795289
-1.2977617 -0.17222856 2.8230813
-1.2814493 -0.16043726 2.8235879
-1.3002476 -0.13696687 2.8198924
-1.3058602 -0.13733776 2.8290451
-1.3075759 -0.10355612 2.8398991
-1.3341739 -0.11863557 2.8344738
-1.3189896 -0.080114067 2.8399737
-1.3274579 -0.0584445 2.8585532
-1.326157 -0.052233759 2.8735597
-1.3584116 -0.030037716 2.9120812
-1.3519185 -0.018574102 2.9364152
-2.3223302 0.93093145 4.9982152
-2.2930274 0.91425765 4.9613094
-2.290483 0.95291167 4.9342093
-2.2601779 0.96958691 4.8727903
-2.2385492 0.98759806 4.8124542
-2.2222958 0.99347126 4.800796
-2.2084868 1.0294932 4.7838106
-2.199167 1.0412904 4.7174559
-2.1736412 1.0751204 4.6922512
-2.1369526 1.079886 4.6481853
-2.1332002 1.1073813 4.61378
-2.1327269 1.0894924 4.5758834
-2.1059201 1.1185406 4.5596871
-2.0854142 1.1473722 4.5174446
-2.0493972 1.1631649 4.5097494
-2.0579197 1.1906165 4.4455314
-2.0717018 1.1786487 4.4253831
-2.0301518 1.2143905 4.3889809
-2.0200727 1.2227091 4.3774261
-1.9982316 1.2432301 4.3433385
-1.9895105 1.2855893 4.2849021
-1.9817384 1.2517903 4.2732015
-1.9707763 1.2786245 4.2366757
-1.9563862 1.2892327 4.2197709
-1.9261165 1.3026516 4.1924953
-1.9240199 1.3182288 4.1721544
-1.9185919 1.3317457 4.1102157
-1.8766265 1.3332455 4.0898695
-1.8973848 1.3784518 4.0651579
-1.8841817 1.3792781 4.0453782
-1.8735641 1.3858438 4.0120845
-1.8606222 1.403357 4.0000057
-1.845149 1.4129086 3.9531071
-1.8304651 1.432842 3.9438972
-1.8023306 1.418359 3.9170094
-1.8154008 1.4577888 3.8893952
-1.8080494 1.483723 3.861975
-1.7717854 1.4625189 3.8397534
-1.758914 1.4861878 3.8059042
-1.7361462 1.497457 3.7963519
-1.7660785 1.5017133 3.7596803
-1.7237306 1.5046967 3.7413089
-1.7252765 1.5225095 3.7338586
-1.7203126 1.5432973 3.7001312
-1.7050483 1.5466921 3.6961541
-1.6915721 1.5513891 3.6566908
-1.3448473 -0.38945237 2.956351
-1.3427421 -0.36773631 2.9112248
-1.3416585 -0.36011201 2.8930614
-1.3217078 -0.33709189 2.8795292
-1.3310257 -0.32324955 2.8767388
-1.312858 -0.29025128 2.871752
-1.3128294 -0.27556449 2.8710854
-1.3060125 -0.25104392 2.8141322
-1.2896143 -0.2375793 2.8043826
-1.2897187 -0.23861465 2.8230419
-1.2738346 -0.23100597 2.7899725
-1.2912254 -0.1908267 2.7956142
-1.3112763 -0.19857937 2.806453
-1.2973326 -0.163416 2.800637
-1.2854031 -0.15786931 2.8073101
-1.3068719 -0.15136138 2.8196423
-1.2980134 -0.13125192 2.8618224
-1.3012066 -0.12236761 2.8367116
-1.302943 -0.085718304 2.835216
-1.3200241 -0.099611789 2.8398187
-1.3220553 -0.055299275 2.8733366
-1.3242087 -0.052693464 2.8932242
-1.340068 -0.055096056 2.901268
-1.3327585 -0.038714536 2.932179
-2.2873659 0.93444741 4.9675345
-2.2899332 0.92479479 4.9404182
-2.2587585 0.95471776 4.9032664
-2.2334788 0.99705929 4.8676453
-2.2160871 0.99722731 4.8165736
-2.1944101 1.0161451 4.776196
-2.1895366 1.0317286 4.7443261
-2.1881931 1.0577371 4.7144156
-2.1594706 1.0723621 4.6818261
-2.1339006 1.0904154 4.6426659
-2.1313415 1.1050575 4.6109452
-2.1127574 1.1171662 4.5873895
-2.1052692 1.1306459 4.5333657
-2.0787668 1.1308751 4.5188699
-2.068018 1.1639141 4.4709544
-2.0538006 1.1874937 4.4397635
-2.0384429 1.1990914 4.4010334
-2.0135615 1.1981974 4.386982
-2.0028796 1.2230532 4.34865
-1.9655112 1.2378167 4.3230352
-1.9950061 1.2649196 4.307766
-1.9557284 1.2821844 4.2531385
-1.9407731 1.2899563 4.2151923
-1.9405526 1.2996702 4.2074962
-1.9316872 1.3093063 4.1628489
-1.9023186 1.326081 4.1520524
-1.9183788 1.3462695 4.107235
-1.9015653 1.3555 4.093699
-1.8649657 1.3650473 4.0660901
-1.8421296 1.3747365 4.0463037
-1.8552339 1.3880115 4.0055132
-1.8232076 1.4039944 3.9703515
-1.8080471 1.4175478 3.9532244
-1.8164365 1.4313989 3.9336791
-1.7955359 1.4415164 3.9052081
-1.7982922 1.4337565 3.8801789
-1.7908698 1.4523839 3.8599856
-1.7687651 1.4744567 3.8261871
-1.7499446 1.4802819 3.8097994
-1.7479731 1.5017681 3.7862232
-1.7341584 1.5144666 3.7616315
-1.7302023 1.5309947 3.7390776
-1.6976103 1.5436033 3.71242
-1.6943363 1.5572809 3.7035379
-1.6700939 1.5544643 3.6754551
-1.674849 1.5645112 3.6529665
-1.3420925 -0.38707548 2.9272206
-1.329064 -0.3687501 2.893929
-1.3280228 -0.36626315 2.9092202
-1.3212206 -0.31038553 2.8806906
-1.3200141 -0.3096444 2.8749423
-1.309924 -0.30785167 2.8406732
-1.2961638 -0.28383943 2.8562133
-1.3092339 -0.27837971 2.8656476
-1.2951524 -0.23954803 2.800714
-1.2923667 -0.21060809 2.7881148
-1.2822649 -0.20967127 2.7877836
-1.2851681 -0.20916906 2.8198402
-1.2949795 -0.17923027 2.8082197
-1.2842014 -0.15622093 2.8098199
-1.2937434 -0.14340593 2.8258476
-1.2997451 -0.13624424 2.8188298
-1.2923932 -0.13902958 2.839325
-1.2837099 -0.10676637 2.8425198
-1.3210679 -0.079249054 2.8327572
-1.3215106 -0.079494551 2.8469276
-1.3068991 -0.071298838 2.8959923
-1.3329763 -0.056700841 2.8956728
-1.3209862 -0.032825887 2.9048402
-1.3541186 -0.023502201 2.975596
-2.275914 0.93319184 4.9751787
-2.2756643 0.92360806 4.9080801
-2.2392638 0.97541404 4.8795471
-2.2242744 0.98686957 4.831296
-2.2122467 1.0102822 4.8205047
-2.1970022 1.0135027 4.7782965
-2.1616426 1.0313853 4.727592
-2.1576591 1.0546908 4.7181282
-2.1350331 1.0732633 4.6696777
-2.1193826 1.0891644 4.6327424
-2.1115286 1.1179074 4.6104879
-2.0963721 1.1212597 4.5805373
-2.0722878 1.1370178 4.5309334
-2.0733602 1.1370162 4.5029521
-2.0347049 1.1713889 4.4560213
-2.0441329 1.1870347 4.4291821
-2.0180504 1.2026963 4.4022694
-1.9963101 1.1990969 4.3675027
-1.9853408 1.2438306 4.321888
-1.9718533 1.2501076 4.3232532
-1.971517 1.2672858 4.2554541
-1.9445951 1.2861828 4.2541695
-1.937135 1.3026257 4.2138295
-1.920922 1.2982758 4.1900134
-1.9091123 1.3137094 4.1584187
-1.9012506 1.342842 4.1277947
-1.8946288 1.3501431 4.109849
-1.8804191 1.3624626 4.090004
-1.8573644 1.385396 4.0285611
-1.8560047 1.3910006 4.0277567
-1.8519772 1.3962109 4.0012774
-1.8268956 1.4116071 3.9620163
-1.8234838 1.4260336 3.9651048
-1.7977574 1.4365425 3.9279916
-1.7859073 1.4385141 3.9045341
-1.7827737 1.4642361 3.8721502
-1.7780483 1.4770586 3.8402567
-1.7491241 1.489127 3.8124301
-1.7276844 1.5004698 3.7956254
-1.7330922 1.500798 3.7626798
-1.7283944 1.5195211 3.7402918
-1.7105184 1.5308484 3.7164345
-1.7009056 1.5266268 3.7151868
-1.6953009 1.538962 3.6912847
-1.6858034 1.5561694 3.6496627
-1.3713216 -0.42796746 2.9658561
-1.332661 -0.37329459 2.9156973
-1.320237 -0.35793582 2.8910334
-1.3331943 -0.34292898 2.894453
-1.3128806 -0.32108921 2.8742249
-1.2836549 -0.3218559 2.8762224
-1.2949028 -0.28345659 2.8768339
-1.300732 -0.28801531 2.8509686
-1.2948413 -0.24278411 2.8454115
-1.3003881 -0.25138256 2.846529
-1.2702458 -0.21574503 2.7903473
-1.2890096 -0.19763835 2.8085809
-1.3032439 -0.18939064 2.8073621
-1.289502 -0.18608224 2.8082073
-1.2720426 -0.15068522 2.805475
-1.2619812 -0.15387927 2.8330097
-1.3011826 -0.14601272 2.8408935
-1.2930564 -0.12739711 2.8443873
-1.2954291 -0.10457365 2.843076
-1.2971978 -0.11406843 2.8515303
-1.3135456 -0.072984532 2.8460038
-1.3307438 -0.065043151 2.8880332
-1.3126153 -0.025784638 2.9249105
-1.3465377 -0.038086586 2.9300108
-2.2755415 0.9240306 4.992353
-2.2647867 0.93614644 4.9529161
-2.2374883 0.93992692 4.9190979
-2.2295346 0.97749162 4.8860822
-2.2124085 0.99370676 4.8492608
-2.195756 0.99699795 4.8094745
-2.1852374 1.0199316 4.7461863
-2.1460123 1.0380032 4.7219129
-2.1543176 1.0699353 4.6788659
-2.1173284 1.0835034 4.6477351
-2.1046145 1.0996898 4.6328101
-2.1124728 1.1077195 4.5818009
-2.0800307 1.1325548 4.5406332
-2.0766246 1.1525398 4.5089769
-2.0521846 1.1529802 4.4747186
-2.0220139 1.1774 4.4440613
-2.0187113 1.1651332 4.4142818
-1.9962214 1.220252 4.4099898
-2.0121913 1.2288555 4.3604922
-1.9943024 1.2429637 4.3369021
-1.9605601 1.2526529 4.296598
-1.9335678 1.283096 4.2808094
-1.9422578 1.2829456 4.2404823
-1.9425362 1.3041769 4.2063622
-1.9218025 1.300285 4.1842337
-1.8970768 1.3283465 4.1497703
-1.885327 1.3412725 4.1305017
-1.8664865 1.323577 4.1086736
-1.8642137 1.3627721 4.061223
-1.8523662 1.3692961 4.0420613
-1.8344893 1.3958198 4.0241876
-1.8134528 1.4171975 3.9922714
-1.8079641 1.4124057 3.9833348
-1.8093541 1.4218376 3.9364974
-1.7940558 1.4398111 3.9258873
-1.7932028 1.451249 3.884798
-1.76372 1.4556687 3.869065
-1.7636238 1.4945067 3.8243787
-1.7367097 1.4676586 3.8358035
-1.7300956 1.5108624 3.7960427
-1.7286859 1.5125856 3.775964
-1.7243855 1.5250239 3.7463596
-1.6935083 1.524861 3.7295454
-1.6980662 1.5285398 3.7075937
-1.6689409 1.5614814 3.6710796
-1.6686662 1.5654497 3.6503363
-1.3627399 -0.40231726 2.9400311
-1.3379902 -0.37012357 2.9136317
-1.3274287 -0.34664142 2.8943746
-1.3170803 -0.34678334 2.8833082
-1.2917492 -0.31954303 2.8729208
-1.3073696 -0.30642712 2.8580449
-1.3090842 -0.28966919 2.870436
-1.3113346 -0.28500527 2.8787165
-1.3128221 -0.25120938 2.8537941
-1.3176852 -0.25072652 2.8781552
-1.3040801 -0.2205817 2.8504179
-1.2897257 -0.2008106 2.8085995
-1.2785497 -0.19457991 2.8078933
-1.2790643 -0.17442006 2.8384016
-1.2965082 -0.16367632 2.8245146
-1.276215 -0.15009905 2.8216562
-1.2891484 -0.13911335 2.8445129
-1.2973518 -0.14097524 2.850168
-1.299004 -0.098336436 2.8516116
-1.3114252 -0.068732038 2.8680923
-1.3198107 -0.072771914 2.8779564
-1.3198577 -0.059158482 2.8838482
-1.3408998 -0.035080567 2.916117
-1.3528686 -0.018416421 2.9715967
-2.2763665 0.91851377 4.9687676
-2.254848 0.94564682 4.9520288
-2.2235322 0.95134366 4.889751
-2.2181048 0.99021971 4.8819213
-2.1819415 1.0005556 4.8205681
-2.1713021 1.0120091 4.7985282
-2.1664212 1.0467199 4.7549424
-2.1394606 1.0542848 4.7119861
-2.1322291 1.0892318 4.6646996
-2.1170559 1.0863969 4.6422286
-2.1072445 1.1079487 4.612124
-2.0841837 1.1271005 4.573267
-2.0450394 1.1425133 4.5396152
-2.0414169 1.1626841 4.5013838
-2.0279903 1.1730924 4.4792714
-2.0364928 1.1697656 4.4276996
-1.9871378 1.2031356 4.417748
-2.0052896 1.2062131 4.3676939
-1.9729695 1.2300187 4.3435321
-1.9763222 1.2429917 4.3173132
-1.9487612 1.2459114 4.292922
-1.9369525 1.2880701 4.2723627
-1.9272996 1.2782396 4.237433
-1.9187909 1.2986252 4.1986437
-1.8889407 1.3163202 4.1738491
-1.8919269 1.3074785 4.1376824
-1.8624829 1.3396698 4.121973
-1.862219 1.3639187 4.0969677
-1.859926 1.3554852 4.0548878
-1.8270791 1.3758795 4.0372701
-1.826172 1.4010503 4.01337
-1.8226119 1.4136581 4.0005169
-1.8104569 1.4035258 3.9612234
-1.7950934 1.4196826 3.9272716
-1.7908354 1.4455742 3.9117835
-1.7742356 1.4514374 3.8819149
-1.769859 1.4355439 3.851541
-1.7420571 1.4553219 3.8446016
-1.7300365 1.4952331 3.8042405
-1.7156521 1.497673 3.792381
-1.7017473 1.5063426 3.7612834
-1.7064379 1.5286604 3.7383254
-1.6825023 1.5336721 3.7261403
-1.6681079 1.5439469 3.6878817
-1.6834482 1.5603634 3.6707239
-1.6572673 1.5717455 3.6620634
-1.3527356 -0.3929536 2.9361267
-1.3223385 -0.3944039 2.9139676
-1.3279454 -0.3458035 2.901577
-1.2970729 -0.33393162 2.8953941
-1.2965406 -0.3175061 2.8907526
-1.2881207 -0.30263394 2.8815341
-1.3012607 -0.27559933 2.8838875
-1.2966356 -0.26450378 2.8559279
-1.2858738 -0.24254946 2.85726
-1.3095526 -0.23684876 2.8705506
-1.2818519 -0.2319781 2.8656943
-1.2958277 -0.20384374 2.8639777
-1.2965076 -0.19231474 2.8854954
-1.2633926 -0.17747399 2.8133757
-1.2755228 -0.14846954 2.8235784
-1.2940189 -0.13805202 2.8325377
-1.2937186 -0.1349182 2.8495996
-1.3051357 -0.11556131 2.8422601
-1.281451 -0.086091205 2.8466489
-1.2817211 -0.0631565 2.8553698
-1.2964246 -0.070482373 2.8896351
-1.3114172 -0.052352678 2.9164469
-1.339016 -0.047332592 2.9027951
-1.3461905 -0.023049381 2.9580624
-2.2662454 0.94868374 5.0069084
-2.2593021 0.93583363 4.927846
-2.2273645 0.95538253 4.9083519
-2.2061524 0.98174024 4.8796163
-2.1751413 1.0141716 4.801558
-2.1711495 1.0333296 4.7960715
-2.1562464 1.0300471 4.7550683
-2.1441848 1.0340202 4.7014804
-2.1160183 1.0748708 4.6742101
-2.110261 1.0714496 4.6522875
-2.0582945 1.1013769 4.6109052
-2.0781398 1.1359013 4.5703678
-2.0656607 1.1299585 4.5434265
-2.0411496 1.149068 4.5162225
-2.0166044 1.1696848 4.4713941
-2.0215416 1.1688566 4.4501634
-1.9930986 1.1797518 4.424304
-2.0001392 1.2049327 4.3675241
-1.9965701 1.2136614 4.3665872
-1.9680191 1.2538991 4.3095531
-1.9544891 1.2401731 4.3104167
-1.9197943 1.2754294 4.2591972
-1.9096791 1.2689146 4.2379079
-1.9210532 1.2935208 4.1981907
-1.8985412 1.3371296 4.1859322
-1.8931214 1.3045818 4.1580667
-1.8759295 1.3386787 4.1359878
-1.8546984 1.3555888 4.0755563
-1.8445816 1.3650719 4.0656815
-1.8265897 1.3875648 4.0415988
-1.8181243 1.3920542 4.0248785
-1.8132023 1.388178 3.9730315
-1.8050234 1.4105856 3.9608891
-1.7702553 1.4216539 3.9374211
-1.7673459 1.4443374 3.9221292
-1.757727 1.4630095 3.8702049
-1.7613373 1.44756 3.846652
-1.7459906 1.4686592 3.81758
-1.7241561 1.4917418 3.827997
-1.7219077 1.5121608 3.7782733
-1.7190921 1.5180489 3.7730114
-1.7075406 1.515196 3.7339883
-1.6916913 1.5382376 3.7094941
-1.6850164 1.5427424 3.7063408
-1.6813191 1.5563581 3.6663053
-1.6554002 1.5504758 3.6548769
-1.3235075 -0.37517101 2.9474745
-1.3180031 -0.36828482 2.9062753
-1.3110926 -0.34857076 2.8908434
-1.311733 -0.32566392 2.9021504
-1.3187437 -0.322274 2.9035881
-1.2813104 -0.29991329 2.8750217
-1.2959709 -0.29085097 2.8649597
-1.2874477 -0.2724039 2.8671021
-1.2897173 -0.2350187 2.8623848
-1.306718 -0.24214108 2.8499823
-1.2832989 -0.23310116 2.8623247
-1.2960873 -0.22920986 2.8791146
-1.3021787 -0.18573347 2.872726
-1.2914065 -0.17422862 2.8664956
-1.2769965 -0.1742907 2.8197095
-1.2730091 -0.15780273 2.8314841
-1.2905408 -0.12816229 2.8041761
-1.2905473 -0.12926839 2.8449702
-1.2918169 -0.11362194 2.8507349
-1.3024191 -0.077387795 2.8666255
-1.3036722 -0.07254909 2.9013464
-1.3005153 -0.052274451 2.9098597
-1.3076106 -0.042270884 2.9233854
-1.3399104 -0.024039594 2.9804864
-2.2521851 0.92279297 4.9805942
-2.2223408 0.9451412 4.9443932
-2.2106562 0.97179544 4.9100046
-2.1961834 0.96900153 4.8701115
-2.1840057 1.0049313 4.829073
-2.1577938 1.0075639 4.8025742
-2.1575367 1.0300733 4.7426744
-2.140852 1.0410699 4.7125435
-2.1325181 1.0801136 4.6868811
-2.0934064 1.1016443 4.6264515
-2.082689 1.0744669 4.6085706
-2.0752804 1.1139964 4.5735631
-2.0468919 1.1174818 4.5253043
-2.0305748 1.1533499 4.512095
-2.019134 1.1753677 4.4837675
-2.010406 1.1928859 4.4300919
-1.9942976 1.2183948 4.4266906
-1.9916191 1.2155281 4.3799396
-1.96321 1.2303951 4.3389144
-1.9687541 1.2496957 4.3246255
-1.9349084 1.2633642 4.3016024
-1.9332333 1.2565445 4.2511549
-1.9180435 1.2816808 4.2227106
-1.8790699 1.3038684 4.1976638
-1.8851172 1.3119529 4.1751757
-1.8605732 1.3291032 4.1454592
-1.8599414 1.3404853 4.1015306
-1.8403542 1.3660755 4.0820484
-1.8313915 1.3628918 4.068265
-1.815842 1.388626 4.0308957
-1.806482 1.3905977 4.0052776
-1.8072696 1.3750278 3.9799612
-1.7867193 1.4090937 3.9541161
-1.7863276 1.4147483 3.9203017
-1.7760488 1.4465712 3.9231381
-1.7572682 1.4488065 3.8958988
-1.7526852 1.472193 3.8709233
-1.7157753 1.4638313 3.8383908
-1.7185713 1.4813352 3.8099482
-1.7107302 1.4951696 3.7816038
-1.6951687 1.5070111 3.7784128
-1.6803166 1.5066711 3.7709241
-1.6675868 1.5223604 3.7125797
-1.6637897 1.5362087 3.7003839
-1.666339 1.5432324 3.6759691
-1.6459776 1.5525469 3.6609061
-1.3187997 -0.38367984 2.9442358
-1.3049579 -0.36465314 2.9094837
-1.291631 -0.37205622 2.9013448
-1.3094528 -0.34292096 2.8928394
-1.3080341 -0.31430697 2.879329
-1.2923729 -0.3115809 2.8792675
-1.2886637 -0.28281307 2.8817675
-1.3013692 -0.2548165 2.8790767
-1.2890853 -0.24303861 2.8822317
-1.2932448 -0.22864492 2.8610334
-1.2758592 -0.2025063 2.865659
-1.2985053 -0.21802239 2.852706
-1.3001964 -0.19630536 2.8718958
-1.297912 -0.18241066 2.8812704
-1.2845728 -0.15970236 2.8860331
-1.2917945 -0.1494264 2.8814135
-1.2762159 -0.11832573 2.8374774
-1.2708863 -0.11379863 2.8653429
-1.2763107 -0.094720952 2.8750756
-1.272071 -0.074906632 2.8752396
-1.2992597 -0.063122042 2.8880479
-1.3176713 -0.060654946 2.9000916
-1.3223408 -0.05446158 2.929347
-1.3264537 -0.030695798 2.9756048
-2.2420213 0.92576575 4.9734387
-2.2187185 0.94479972 4.9426312
-2.2205403 0.98490345 4.8824835
-2.1855962 0.99679434 4.8492708
-2.1661375 1.0041875 4.8205261
-2.132035 1.0331789 4.7696724
-2.1299832 1.0175674 4.7284727
-2.1125064 1.0462987 4.7003436
-2.0999653 1.0671617 4.6617265
-2.0936811 1.0855558 4.6107049
-2.0702093 1.0949339 4.5934248
-2.0555401 1.1300044 4.5533104
-2.0604358 1.1504834 4.5393257
-2.0295897 1.1497123 4.5028157
-2.0114162 1.1628299 4.4689212
-1.9900205 1.1962477 4.4219093
-1.9976017 1.1997209 4.4011002
-1.9628272 1.2199032 4.3703556
-1.9635818 1.2429377 4.3409257
-1.9440302 1.2617285 4.3124533
-1.9271737 1.258963 4.2844324
-1.8930211 1.2704279 4.2529192
-1.8944273 1.2814573 4.2243772
-1.8775699 1.2846111 4.1818738
-1.8726197 1.3334842 4.150229
-1.8691393 1.3440593 4.1326451
-1.8472717 1.3454942 4.1148677
-1.823807 1.3544786 4.0750761
-1.8146865 1.3642393 4.0557976
-1.8128595 1.3825195 4.0128684
-1.7990756 1.4015123 4.0024095
-1.7961546 1.4176186 3.9761403
-1.7806093 1.4068038 3.9515607
-1.7771403 1.4312518 3.9156091
-1.7556127 1.4431776 3.8932197
-1.7366512 1.443041 3.8641083
-1.7305702 1.4860551 3.8665819
-1.7145391 1.4736335 3.8287237
-1.7104387 1.4705932 3.806865
-1.685648 1.4967951 3.7853289
-1.6943058 1.5139052 3.7390802
-1.6695492 1.5142415 3.7285707
-1.6681329 1.5385841 3.7020752
-1.6578104 1.5456483 3.692049
-1.6591974 1.5704108 3.6625619
-1.3387421 -0.38806772 2.9851468
-1.3170695 -0.3910926 2.9325821
-1.3210212 -0.36225396 2.9232533
-1.2928771 -0.34930477 2.910322
-1.2870766 -0.30484581 2.8877726
-1.3018792 -0.31223726 2.8614137
-1.2797449 -0.29241306 2.8970165
-1.2811118 -0.27144539 2.8747599
-1.2931105 -0.25766015 2.8729596
-1.296165 -0.24217477 2.8741629
-1.3008561 -0.23043463 2.8537295
-1.2820684 -0.20873708 2.8871384
-1.2824384 -0.21046162 2.8678162
-1.3010395 -0.19698693 2.8965652
-1.2893684 -0.17503422 2.8677998
-1.2881008 -0.13722834 2.8799706
-1.283234 -0.13515359 2.9031839
-1.3088819 -0.12232587 2.9191496
-1.2716403 -0.10767929 2.8553872
-1.284731 -0.093297035 2.8854322
-1.2921206 -0.070368104 2.8928273
-1.2977881 -0.069381446 2.8706479
-1.3153609 -0.058290739 2.9298165
-1.3318135 -0.031156367 2.952642
-2.2470529 0.91805679 4.9792228
-2.2215357 0.93187404 4.9576707
-2.2067795 0.95527697 4.9138107
-2.2035506 0.97866875 4.8681755
-2.1694169 0.98850286 4.8297915
-2.1585763 1.0104039 4.8001761
-2.1441407 1.0228896 4.7445321
-2.1340282 1.0369228 4.7166958
-2.1022184 1.0656277 4.7019835
-2.089617 1.0822585 4.6608906
-2.062398 1.1082466 4.6189361
-2.0646741 1.1121299 4.5964775
-2.0330453 1.1262318 4.5328689
-2.0363183 1.1316183 4.521781
-2.0123818 1.1672593 4.4827161
-1.9983004 1.1906983 4.4626627
-1.9941316 1.1847285 4.416996
-1.9875723 1.2017186 4.3873425
-1.9629893 1.2188926 4.3492069
-1.9580564 1.2508156 4.318996
-1.9320197 1.2571155 4.2727113
-1.9120923 1.280413 4.2488379
-1.9085156 1.2826287 4.2271709
-1.8861884 1.301885 4.2028041
-1.876328 1.3072717 4.1783652
-1.8404386 1.3093107 4.1417646
-1.8459533 1.3520045 4.1123233
-1.8484018 1.373823 4.0823293
-1.8286325 1.3557718 4.0817809
-1.8228325 1.381337 4.0517864
-1.7969707 1.3947667 4.0201678
-1.7850379 1.4100533 3.9873559
-1.7769091 1.4160479 3.9722362
-1.7564394 1.4355925 3.9376938
-1.7699643 1.4427884 3.9159167
-1.7391536 1.4594492 3.8913634
-1.7369205 1.4646397 3.8696365
-1.7229661 1.4736843 3.850214
-1.7027563 1.4884878 3.8087852
-1.6869965 1.5132587 3.7992411
-1.6991163 1.5045691 3.7742882
-1.6736046 1.5223097 3.7502995
-1.6742773 1.5166483 3.726835
-1.6764337 1.5451568 3.7141654
-1.6540705 1.5458486 3.6786132
-1.6415533 1.5595757 3.6778612
-1.3388835 -0.39477158 2.9572937
-1.3021661 -0.38730392 2.9122744
-1.3037102 -0.35273656 2.9097326
-1.2901837 -0.34558016 2.9071484
-1.2766117 -0.30504423 2.8923869
-1.2963313 -0.31170383 2.8717074
-1.2825477 -0.28833914 2.8763094
-1.2877131 -0.27493012 2.8819075
-1.2800331 -0.26312265 2.8531511
-1.2677536 -0.24370401 2.8753211
-1.2854286 -0.24117854 2.871454
-1.271678 -0.21761422 2.8566039
-1.276251 -0.18641746 2.8744371
-1.269837 -0.19043539 2.8609936
-1.2792221 -0.16178481 2.8842697
-1.28023 -0.16088527 2.8897405
-1.3205744 -0.15233487 2.9045238
-1.2977996 -0.11619285 2.9233336
-1.2966272 -0.087773301 2.9402025
-1.2804042 -0.084420539 2.8648286
-1.2929343 -0.075255774 2.898603
-1.2858253 -0.073063657 2.9005964
-1.3051243 -0.042667616 2.9250584
-1.3137666 -0.018139582 2.9486177
-2.2227933 0.92474765 4.985116
-2.2034843 0.94326991 4.929019
-2.1669018 0.97781676 4.8854465
-2.1763713 0.98470843 4.8607564
-2.1612816 0.98241621 4.8218179
-2.1299987 1.0074795 4.8020387
-2.0913465 1.0376575 4.7481027
-2.0961826 1.0461563 4.7178035
-2.0880339 1.0576624 4.6664329
-2.0528448 1.1002098 4.6549358
-2.056746 1.087303 4.614377
-2.0292761 1.0990274 4.5728927
-2.0209043 1.1366749 4.5388079
-2.005537 1.1526771 4.5100231
-1.9898909 1.1586827 4.4747705
-1.9689319 1.1777436 4.4353409
-1.967317 1.187009 4.4305305
-1.9619197 1.2144326 4.3795176
-1.9341503 1.2339187 4.331903
-1.9349687 1.2323668 4.3291321
-1.92461 1.2573159 4.2854047
-1.909335 1.2515457 4.2528811
-1.8943771 1.2862315 4.2375321
-1.8921951 1.3095785 4.204031
-1.857812 1.3077186 4.1607699
-1.8363949 1.3181027 4.1458488
-1.8563174 1.3434747 4.1086221
-1.8251376 1.3550669 4.0772061
-1.8237652 1.3461591 4.0512881
-1.8044289 1.3772135 4.0217299
-1.7931427 1.3760446 4.0013471
-1.7771776 1.4006928 3.9806564
-1.7544289 1.4062006 3.9519629
-1.7570808 1.4244604 3.9268143
-1.7533575 1.4521745 3.8959234
-1.7253511 1.4421105 3.889214
-1.7289315 1.4685452 3.8613868
-1.7211976 1.4994131 3.8366723
-1.7022731 1.4735893 3.8182528
-1.6917642 1.492412 3.7940342
-1.6724542 1.5145953 3.7715034
-1.6659156 1.4989811 3.7369382
-1.6497394 1.5362333 3.6984324
-1.6461513 1.554724 3.69116
-1.6316007 1.5386312 3.6737897
-1.6201645 1.5644048 3.6664474
-1.3205669 -0.39751166 2.9252145
-1.2897843 -0.35868126 2.9098091
-1.2701962 -0.35199994 2.8888781
-1.2658405 -0.34068611 2.8720047
-1.2802132 -0.33105525 2.8970492
-1.2756103 -0.30823627 2.8900945
-1.3006033 -0.28434971 2.8743794
-1.2916092 -0.2690126 2.8690121
-1.2926139 -0.26193485 2.8887699
-1.2681093 -0.23211817 2.8576214
-1.2643685 -0.22192831 2.8824079
-1.2732797 -0.20175493 2.8644753
-1.2763231 -0.21035106 2.8788075
-1.278833 -0.1806774 2.8823736
-1.2943618 -0.16097267 2.8928549
-1.2860539 -0.15503967 2.9137871
-1.2805338 -0.12064817 2.8991718
-1.2882055 -0.13759735 2.9098537
-1.3027568 -0.09715151 2.9403081
-1.3423634 -0.098766945 2.9825299
-1.2830845 -0.055568114 2.9147158
-1.3287022 -0.057181593 2.9473476
-1.3170185 -0.027448077 2.9692841
-2.2257409 0.9253388 4.9774714
-2.2117348 0.94815719 4.9427748
-2.1878281 0.97035503 4.8966722
-2.1500568 0.98245579 4.8600903
-2.1576917 1.00904 4.8219776
-2.1244051 1.0344144 4.7964363
-2.1084213 1.0388756 4.7401876
-2.0891349 1.063507 4.7205791
-2.0704527 1.0557758 4.6857123
-2.0682399 1.0937206 4.6344681
-2.0460556 1.0925097 4.6062655
-2.0391238 1.1266054 4.5740161
-2.0202966 1.1320297 4.5409231
-2.0137594 1.1633842 4.5061941
-1.9937481 1.1564503 4.4735122
-1.9728463 1.1901995 4.4483228
-1.9568641 1.1933633 4.4076118
-1.938989 1.2179278 4.3765616
-1.9188596 1.2472988 4.3457389
-1.9130141 1.2395213 4.3113146
-1.9011492 1.2718501 4.2933173
-1.9017292 1.2609582 4.2380571
-1.8659618 1.2782414 4.2439933
-1.8703072 1.2974062 4.195138
-1.8624526 1.2950504 4.1886449
-1.8295172 1.3269782 4.1486411
-1.8299692 1.3378131 4.1192284
-1.8230586 1.3554715 4.0850868
-1.7914349 1.3583221 4.0414925
-1.8091021 1.3601209 4.0280085
-1.8022071 1.3867613 4.0215268
-1.7654675 1.4094414 3.9805942
-1.7490879 1.4160928 3.9485683
-1.7586111 1.4436376 3.9336653
-1.7349328 1.441978 3.9256475
-1.7453976 1.4646237 3.8847489
-1.717773 1.466566 3.8553188
-1.705583 1.4598138 3.8328807
-1.7019038 1.4896047 3.8171079
-1.676492 1.5178 3.7990167
-1.6741915 1.4993343 3.7486963
-1.6758404 1.5249856 3.725385
-1.6357731 1.5367779 3.7126112
-1.6557604 1.547568 3.7052176
-1.6237004 1.5480754 3.680722
-1.6313835 1.5682536 3.6442976
-1.3117774 -0.39481348 2.9549308
-1.3175708 -0.38469183 2.9119654
-1.2915905 -0.35535896 2.9019601
-1.2893999 -0.31784916 2.9037886
-1.288155 -0.32326755 2.8804653
-1.2779899 -0.29084083 2.8801787
-1.2693927 -0.29168648 2.8673215
-1.2814299 -0.27589148 2.8700578
-1.2648304 -0.27370059 2.8637178
-1.2704186 -0.23568721 2.8699157
-1.2748145 -0.2362994 2.8678417
-1.2731341 -0.20972279 2.8705082
-1.281364 -0.21140194 2.8592064
-1.277791 -0.16087642 2.8853173
-1.278744 -0.17395861 2.901454
-1.2836041 -0.13796429 2.9059508
-1.295751 -0.13242471 2.9293799
-1.2956177 -0.13140231 2.9420042
-1.2998835 -0.1030516 2.956146
-1.3193114 -0.092762738 2.9934473
-1.3080099 -0.030217147 2.958849
-2.2189677 0.91339022 4.9924684
-2.1957812 0.92397493 4.9618092
-2.1712165 0.9580096 4.9045172
-2.1723061 0.98170626 4.8719172
-2.1388698 0.98932785 4.8241978
-2.1130178 0.9962191 4.793622
-2.1004231 1.0222992 4.7902336
-2.0831699 1.0522984 4.7207875
-2.0642192 1.0730277 4.6989422
-2.0537689 1.0697012 4.6482186
-2.0442634 1.1024997 4.6138883
-2.0285335 1.1259183 4.587204
-2.0073307 1.129998 4.5501652
-2.0126498 1.1390543 4.5276766
-1.9842935 1.1550341 4.4936767
-1.9871638 1.1642611 4.4518676
-1.9696273 1.1989672 4.4199171
-1.9410115 1.2044523 4.3824625
-1.9385706 1.2207438 4.3570795
-1.9163252 1.259225 4.3278403
-1.9087424 1.268845 4.2914405
-1.8828728 1.263441 4.2622933
-1.8775736 1.2917831 4.233757
-1.8672925 1.2956208 4.1945677
-1.8379227 1.3108743 4.1937375
-1.836518 1.3244222 4.1639032
-1.8238707 1.3172544 4.1299558
-1.8219514 1.3375132 4.1078677
-1.8019004 1.3548623 4.0464735
-1.7914904 1.3541856 4.0360222
-1.7709802 1.3945941 4.0179119
-1.770344 1.3851527 3.9933691
-1.7540958 1.4373264 3.9588854
-1.7161574 1.418547 3.9491603
-1.733207 1.4371289 3.9218283
-1.7164947 1.4531823 3.8743877
-1.7288016 1.4726766 3.8800004
-1.703306 1.4703159 3.8489847
-1.6787999 1.4759955 3.8247988
-1.6635104 1.4976947 3.7889314
-1.6659049 1.4972556 3.7750485
-1.6702821 1.5123543 3.7531354
-1.6590811 1.5333917 3.7140713
-1.6325364 1.5453848 3.6895571
-1.6294976 1.5625598 3.6834929
-1.6231246 1.5740769 3.681237
-1.3129648 -0.38964427 2.9875834
-1.2967832 -0.39538497 2.9323673
-1.2902849 -0.37292081 2.9236648
-1.2821658 -0.36077639 2.9095225
-1.2872093 -0.34011588 2.9043529
-1.2636083 -0.32308835 2.8853309
-1.2861966 -0.29939628 2.8906922
-1.2647893 -0.28061417 2.868207
-1.2815697 -0.25054231 2.8851466
-1.2534047 -0.27441275 2.8876536
-1.2780758 -0.23975329 2.8739412
-1.2822366 -0.21262659 2.8882833
-1.2638848 -0.20266007 2.8837047
-1.2682536 -0.19990729 2.8713102
-1.2598313 -0.1755608 2.8927951
-1.2795634 -0.16988398 2.9105275
-1.2874061 -0.16110915 2.9134972
-1.2863532 -0.12237538 2.9310367
-1.2840588 -0.11489775 2.9347391
-1.3115972 -0.098172076 2.9648945
-1.3199341 -0.089475989 3.003283
-2.1829834 0.93715131 4.9699473
-2.1850584 0.94594723 4.9401741
-2.1632035 0.96775883 4.9029765
-2.136272 0.97730476 4.8316617
-2.1262667 1.0137078 4.8132038
-2.1151874 1.0051428 4.7730675
-2.0909808 1.0283246 4.7307782
-2.094743 1.0609165 4.6858659
-2.0553596 1.0907805 4.6504979
-2.044172 1.097527 4.6250782
-2.0333631 1.1078739 4.5969734
-2.0117905 1.1411405 4.5747857
-1.9781276 1.1333333 4.5204673
-1.9908166 1.1571975 4.5122747
-1.9729569 1.1871568 4.4713907
-1.9432468 1.1968197 4.4373884
-1.9255753 1.2089385 4.3770943
-1.9200958 1.2160707 4.3701992
-1.9010993 1.2383548 4.3273015
-1.9014641 1.2413961 4.2916508
-1.8960646 1.2395638 4.2886672
-1.8585961 1.2820519 4.2439113
-1.8636277 1.2979126 4.2141562
-1.8524963 1.3115227 4.1944833
-1.8365824 1.3002714 4.1405973
-1.8108003 1.3211042 4.1310263
-1.8165296 1.3601694 4.0912395
-1.8235507 1.3570579 4.0838842
-1.7852405 1.369722 4.0561433
-1.7939867 1.3846412 4.0285473
-1.756905 1.3967805 4.007297
-1.7623321 1.4383544 3.9728856
-1.7395084 1.422446 3.9416919
-1.7356161 1.4386437 3.9230011
-1.7162305 1.4509099 3.918736
-1.7001551 1.4841076 3.8680747
-1.6870936 1.4803374 3.8443079
-1.6602427 1.4835387 3.8329573
-1.6635411 1.4921638 3.8188121
-1.670347 1.5114565 3.7721934
-1.6307281 1.5161537 3.7454078
-1.6235367 1.5223957 3.7320766
-1.6405689 1.5185673 3.732794
-1.6373477 1.5467651 3.6954916
-1.6453789 1.5212874 3.6618717
-1.3200736 -0.43347844 3.0131509
-1.3079616 -0.38440371 2.9590962
-1.2681608 -0.37425277 2.9179473
-1.2806938 -0.33158934 2.9073927
-1.2774158 -0.34970236 2.8957074
-1.256421 -0.33956149 2.8807883
-1.2654965 -0.29543626 2.8875315
-1.2623259 -0.29202142 2.88815
-1.2684903 -0.26856378 2.8919864
-1.2543576 -0.25116676 2.8880501
-1.2639253 -0.22236025 2.8810482
-1.2549355 -0.22252776 2.8838856
-1.2725322 -0.21745668 2.8983386
-1.2703785 -0.19982186 2.8968766
-1.2797037 -0.17860864 2.9064429
-1.2684381 -0.16397232 2.8953042
-1.2828628 -0.14785488 2.8939474
-1.2865663 -0.14045395 2.9186876
-1.2776915 -0.12320963 2.9282181
-1.2982183 -0.10512984 2.9574769
-1.3165106 -0.081547491 2.9836018
-2.1854398 0.92782617 4.9894691
-2.1508298 0.94449711 4.9386611
-2.161788 0.9675101 4.9121432
-2.1310978 0.99505919 4.8770819
-2.105885 0.9808982 4.8323994
-2.0956972 1.0101595 4.7844486
-2.0894363 1.0420717 4.7567964
-2.0735893 1.0494878 4.7210708
-2.0449357 1.0730824 4.6796145
-2.0226943 1.079873 4.6386828
-2.0105217 1.1107237 4.6093235
-2.0172923 1.1141744 4.5628853
-2.0096385 1.1240425 4.5411782
-1.9848404 1.1496352 4.4997101
-1.9614305 1.1454453 4.4778385
-1.956977 1.1982187 4.426558
-1.9507742 1.202853 4.4097705
-1.9268293 1.2100564 4.3647828
-1.9146382 1.2275996 4.3729053
-1.882259 1.2493706 4.3310747
-1.8942246 1.2642595 4.2837248
-1.8824078 1.2673908 4.2579198
-1.8577923 1.2797279 4.2027287
-1.854244 1.276548 4.2019935
-1.8340249 1.2897642 4.1914887
-1.8134117 1.3355227 4.1482735
-1.8131307 1.343322 4.1304669
-1.7700154 1.3531306 4.0897036
-1.7732179 1.3706393 4.0578108
-1.7769789 1.3843056 4.0480084
-1.7611102 1.3939085 4.0062599
-1.7373356 1.4272343 3.9751756
-1.7338349 1.41157 3.9598706
-1.7268347 1.4221349 3.9272075
-1.7044975 1.4486971 3.9066422
-1.6793002 1.4717327 3.8635778
-1.6844256 1.4620696 3.8419013
-1.6679156 1.4870747 3.8217049
-1.6555275 1.4981439 3.8236101
-1.658823 1.5073941 3.7959266
-1.6466511 1.5143306 3.776022
-1.6430049 1.5249308 3.7495902
-1.6240734 1.5433843 3.7291265
-1.6397607 1.5628732 3.7027686
-1.6148478 1.5292588 3.6635156
-1.5982873 1.559889 3.643892
-1.3043401 -0.39748579 2.9692879
-1.2859629 -0.37461576 2.9290695
-1.281682 -0.35277218 2.9301565
-1.2646594 -0.34720409 2.8939271
-1.2581763 -0.32336444 2.8987837
-1.2639232 -0.31968996 2.866744
-1.2512584 -0.27318454 2.8863811
-1.2398628 -0.29257038 2.8791945
-1.2644322 -0.27414572 2.8842027
-1.2623112 -0.24865614 2.8748085
-1.2635041 -0.2192907 2.8760355
-1.256562 -0.22436792 2.8824894
-1.2516717 -0.19531766 2.8803458
-1.264474 -0.18911111 2.9109514
-1.2610482 -0.18231404 2.9054508
-1.2771635 -0.15004213 2.9073205
-1.2834513 -0.15265401 2.9098511
-1.280551 -0.12441108 2.9235377
-1.2842653 -0.10542291 2.9519017
-1.2918856 -0.083241649 2.9847689
-2.2047582 0.9428609 5.0170412
-2.1745577 0.91543823 4.9645252
-2.1444237 0.9633491 4.9158273
-2.1201148 0.96700418 4.8773994
-2.1073437 0.99430221 4.8302674
-2.1013899 1.0048952 4.8174105
-2.0597284 1.0183994 4.7714696
-2.0733531 1.0316958 4.7389598
-2.0671296 1.0443007 4.6931567
-2.0329275 1.0717387 4.646328
-2.018971 1.0863558 4.6071248
-2.0003428 1.1142703 4.6022911
-1.9928594 1.1396945 4.5623708
-1.9866121 1.1432568 4.517859
-1.9603894 1.1545475 4.492465
