# .PCD v0.7 - Point Cloud Data file format
VERSION 0.7
FIELDS x y z
SIZE 4 4 4
TYPE F F F
COUNT 1 1 1
WIDTH 1413
HEIGHT 1
VIEWPOINT 0 0 0 1 0 0 0
POINTS 1413
DATA ascii
-0.23886472 -1.1015933 3.1651123
-0.24279864 -1.0810181 3.1826804
-0.22248995 -1.1003 3.178205
-0.23519686 -1.0549415 3.179858
-0.26950091 -1.0376276 3.2019045
-0.20108302 -1.0125449 3.1731241
-0.22662027 -1.0119739 3.1948614
-0.21317546 -1.0166416 3.2015383
-0.24211541 -0.99757934 3.245235
-0.24369848 -0.95973176 3.2229955
-0.204025 -0.94972306 3.2180514
-0.23143502 -0.95133144 3.2467217
-0.25195786 -0.93924344 3.2644138
-0.20824824 -0.8799234 3.2619121
-0.25763503 -0.86175084 3.275986
-0.25214347 -0.86837566 3.2688062
-0.27602819 -0.80553359 3.2589402
-0.25086841 -0.85232794 3.2967651
-0.24566326 -0.83068913 3.3009393
-0.24875012 -0.7823534 3.2942855
-0.2638295 -0.79362112 3.3019383
-0.20681593 -0.78676498 3.3051248
-0.28685486 -0.77571154 3.352334
-0.23182166 -0.75600946 3.3423545
-0.25589204 -0.73138696 3.2916868
-0.2372372 -0.72251147 3.3589005
-0.26269218 -0.6585179 3.3672204
-0.28924441 -0.72490156 3.4020584
-0.24439138 -0.68802297 3.370682
-0.27768183 -0.67282665 3.4029768
-0.25760525 -0.64244443 3.4189765
-0.2518754 -0.6249404 3.404844
-0.2467836 -0.5960654 3.3764696
-0.2495822 -0.59961009 3.3698654
-0.23995851 -0.5440883 3.3581882
-0.2681413 -0.55636692 3.3879023
-0.25126952 -0.51382083 3.3086879
-0.24536684 -0.55065733 3.3557916
-0.24225707 -0.47987568 3.3579178
-0.22229177 -0.47461379 3.3384831
-0.27108997 -0.44680306 3.3364058
-0.23579368 -0.4398523 3.3396859
-0.26747918 -0.43037611 3.3983648
-0.23917829 -0.43028295 3.3471992
-0.20650855 -0.38691536 3.368238
-0.25801244 -0.34730408 3.3883414
-0.25635466 -0.3182736 3.4132144
-0.27559119 -0.35561278 3.3823702
-0.26824105 -0.30610836 3.5645587
-0.29152474 -0.33580902 3.5579512
-0.25645635 -0.29235312 3.6060762
-0.30164608 -0.31435454 3.597723
-0.24533023 -0.23718341 3.6174228
-0.28826693 -0.23834147 3.613961
-0.264707 -0.21323426 3.6584129
-0.30124661 -0.18071115 3.6381302
-0.31861636 -0.17614764 3.6684861
-0.28449255 -0.14366764 3.6429241
-0.25876537 -0.17403501 3.6647573
-0.2969299 -0.12823907 3.7092633
-0.28324071 -0.094299681 3.6772897
-0.31527314 -0.11038272 3.7072289
-0.27582082 -0.066779919 3.7063489
-0.26702708 -0.027336467 3.7385561
-0.23682757 -0.019449264 3.7517204
-0.27197781 0.020031953 3.7441952
-0.27058804 -0.00063009001 3.7539568
-0.27239168 0.06108778 3.7902701
-0.28097516 0.05283263 3.8061154
-0.25127494 0.073507547 3.832015
-0.28414378 0.11158407 3.8415375
-0.28181344 0.12734887 3.8546028
-0.26366287 0.13195066 3.8641772
-0.31714869 0.14069173 3.85163
-0.28813788 0.18562025 3.8497763
-0.29662961 0.19048297 3.9338191
-0.2775121 0.21926466 3.8890913
-0.31064057 0.29944971 3.911911
-0.29863575 0.27055612 3.9567895
-0.30225211 0.33162409 3.9387953
-0.31242222 0.32648438 3.9351873
-0.28423339 0.34499624 4.0308733
-0.30893701 0.38491881 4.0130839
-0.3027992 0.38200712 4.0161867
-0.32873428 0.41091728 4.0284786
-0.38438627 0.88228554 4.9864769
-0.3761794 0.92458802 4.8212447
-0.38940519 0.89824057 4.8241386
-0.36512005 0.95420045 4.7507286
-0.32677054 0.92968369 4.6548395
-0.35473451 0.96539831 4.6028037
-0.38443226 1.0068638 4.5356469
-0.35074407 0.97533113 4.5272212
-0.33311114 1.0280125 4.4800425
-0.31569687 1.0370544 4.4384718
-0.36020342 1.038721 4.4196968
-0.30935845 1.0833895 4.3800511
-0.31224421 1.0840163 4.3481383
-0.34769371 1.1039418 4.3211741
-0.31027985 1.0967957 4.3095927
-0.27732235 1.1315502 4.2845488
-0.31496274 1.1712111 4.2852592
-0.30783129 1.1520994 4.2162194
-0.29736531 1.1702 4.1943755
-0.32026035 1.1788262 4.106123
-0.32908893 1.2177042 4.0974693
-0.3230913 1.2628131 4.0938306
-0.30409294 1.2179494 4.1348515
-0.31169847 1.2569214 4.0829644
-0.29195523 1.2830701 4.0703783
-0.3059926 1.2639788 4.0418172
-0.28428948 1.280236 3.9629381
-0.2684041 1.2639158 3.989228
-0.29988042 1.3229761 3.9417391
-0.30474487 1.3286779 3.9346941
-0.30763456 1.3710679 3.936317
-0.31842795 1.3615184 3.8634551
-0.30933717 1.34126 3.878643
-0.26601419 1.3765538 3.8328061
-0.28524318 1.3725861 3.7402387
-0.27772745 1.3455715 3.7750509
-0.31734148 1.4446436 3.7211926
-0.30158985 1.417672 3.7166915
-0.26291919 1.4648966 3.7164211
-0.26625457 1.4843661 3.6960945
-0.26430583 1.4755189 3.7203596
-0.27299908 1.5397238 3.7789638
-0.28842294 1.5221276 3.7073998
-0.31484279 1.5854323 3.7408407
-0.32659423 1.5492759 3.7187388
-0.30226856 1.5912622 3.672044
-0.27157494 -1.4413453 3.3317988
-0.20603596 -1.2560745 2.9744744
-0.20509647 -1.3208516 3.0711162
-0.24005762 -1.2470841 3.0484569
-0.21200432 -1.2374467 3.0998859
-0.22540653 -1.2469949 3.0704541
-0.21024047 -1.2284746 3.0882571
-0.24748889 -1.2084143 3.0563219
-0.21061203 -1.1773103 3.0897915
-0.24039991 -1.1538414 3.0662405
-0.22646725 -1.1741998 3.1138453
-0.25743455 -1.1598449 3.1035764
-0.18323524 -1.1397768 3.1303639
-0.20460071 -1.1005629 3.1361363
-0.2550793 -1.1012908 3.1229637
-0.26396385 -1.057653 3.1691353
-0.21670051 -1.0516741 3.1590772
-0.21895926 -1.0533438 3.1817973
-0.27091491 -1.0156769 3.1670675
-0.22896452 -1.0338618 3.1944664
-0.23082712 -1.0461311 3.201122
-0.24498552 -1.0017945 3.2086813
-0.21213531 -1.0137513 3.2250888
-0.22419742 -0.94335622 3.1825328
-0.22816591 -0.94893509 3.2461205
-0.1895462 -0.95624888 3.2446709
-0.2541644 -0.88410997 3.2507346
-0.23651665 -0.91917783 3.2368307
-0.24478884 -0.89964783 3.2595003
-0.25598156 -0.87386644 3.2675912
-0.25609276 -0.86668748 3.2942147
-0.22292218 -0.8521747 3.2818823
-0.23601085 -0.83460927 3.2836239
-0.24172603 -0.78218108 3.3158813
-0.24360195 -0.79797292 3.2845068
-0.24571031 -0.77817971 3.3055813
-0.23414399 -0.78876013 3.3486359
-0.28819174 -0.74395519 3.3285418
-0.2547437 -0.73758912 3.3228953
-0.27919331 -0.7588467 3.3173246
-0.19927479 -0.69577903 3.3647447
-0.2578907 -0.67443305 3.3854699
-0.23009139 -0.63854665 3.3481998
-0.24378894 -0.64344335 3.3599367
-0.25422847 -0.6370151 3.4047408
-0.2739459 -0.62593746 3.3807912
-0.29029936 -0.5905959 3.36444
-0.22606872 -0.57127827 3.371222
-0.26532876 -0.57453787 3.4005425
-0.24502075 -0.56028384 3.3670928
-0.23914568 -0.56315911 3.3306956
-0.25373942 -0.46346381 3.3388112
-0.24949521 -0.52424026 3.3477566
-0.24446203 -0.46106532 3.3586941
-0.23023269 -0.4816528 3.3798702
-0.25679883 -0.41976458 3.3662233
-0.24263859 -0.41204578 3.3364894
-0.21929504 -0.39266533 3.3825192
-0.2265317 -0.3596836 3.3670821
-0.24974008 -0.34716737 3.3670156
-0.25009051 -0.33353767 3.410068
-0.27875626 -0.3032701 3.4370589
-0.23785302 -0.31999525 3.5296443
-0.26306555 -0.28974548 3.5701227
-0.27989361 -0.32707781 3.5859993
-0.26490536 -0.26238498 3.5948632
-0.27003893 -0.26779521 3.6012955
-0.25972393 -0.24189733 3.6061406
-0.25987276 -0.15610887 3.6411448
-0.26369879 -0.20044081 3.6586528
-0.29321164 -0.14343226 3.6457705
-0.26875398 -0.15688591 3.6348183
-0.2372831 -0.1313936 3.6747918
-0.26179534 -0.099429987 3.6989067
-0.28052604 -0.079207212 3.6561873
-0.27607137 -0.074204117 3.7084234
-0.29677039 -0.071075797 3.6788785
-0.24975578 -0.019567076 3.6945829
-0.2770316 -0.0061222967 3.7642674
-0.26969805 0.03157251 3.7314579
-0.26491362 0.018974457 3.7638888
-0.25261268 0.062842436 3.7467134
-0.2776877 0.056580968 3.804471
-0.26812029 0.077653423 3.7711773
-0.28985116 0.12630473 3.8079336
-0.31417221 0.15803662 3.7795818
-0.28724065 0.15435225 3.8291509
-0.24097292 0.16347282 3.8445592
-0.2864064 0.22587192 3.8415008
-0.29121315 0.25432456 3.8808665
-0.28632265 0.24309741 3.837975
-0.27769899 0.26865238 3.8764157
-0.26482975 0.30631021 3.882452
-0.27477139 0.29091763 3.9299202
-0.30866918 0.33644456 3.9322112
-0.30556935 0.32851654 3.9232483
-0.31024128 0.40457827 3.9575953
-0.29336414 0.42060152 4.0012999
-0.28968281 0.4299182 3.9925127
-0.28697228 0.44618332 3.9793191
-0.31745535 0.45358375 4.0306163
-0.31780949 0.46956229 4.0420446
-0.2959033 0.50855613 4.0675764
-0.31015539 0.54016149 4.0884738
-0.31957182 0.55449569 4.0897856
-0.292041 0.58780414 4.1119275
-0.28846848 0.59523559 4.121161
-0.37486386 0.90627617 4.8600383
-0.33164915 0.87029374 4.7824693
-0.36964551 0.9614141 4.7626452
-0.36472851 0.9902842 4.7186437
-0.32982749 0.9321003 4.6573777
-0.33273813 0.96589053 4.6193342
-0.38416719 0.99796814 4.5836334
-0.34031302 0.95586509 4.5152621
-0.32996804 1.0246542 4.4970498
-0.31891596 1.04259 4.4587622
-0.28425974 1.0787727 4.4098845
-0.32687318 1.1021523 4.3789163
-0.30982667 1.0501246 4.3604765
-0.32328218 1.1278541 4.3128381
-0.26581097 1.1353718 4.2945528
-0.33969158 1.1300335 4.2430801
-0.2874513 1.1287243 4.2257295
-0.32259643 1.1882356 4.1865926
-0.30645809 1.1574186 4.1694798
-0.26648897 1.2022426 4.1155195
-0.30528387 1.1997143 4.1029201
-0.30839595 1.2347028 4.0748014
-0.30853927 1.2657276 4.1111269
-0.29324985 1.255281 4.0790629
-0.32236946 1.2669474 4.0696263
-0.26979885 1.2804631 4.0119815
-0.25933221 1.3044307 3.9693747
-0.31831232 1.312817 3.9770501
-0.31088549 1.3223685 3.9151456
-0.24461658 1.3401632 3.9099534
-0.29180813 1.330532 3.8923583
-0.274138 1.3686934 3.8569
-0.28636584 1.4163796 3.8475416
-0.2779749 1.3655046 3.8184075
-0.25738207 1.3999642 3.7955911
-0.27456808 1.3707399 3.7591252
-0.2788004 1.4244459 3.7267344
-0.26904172 1.4620031 3.7138228
-0.28320745 1.4500288 3.7278073
-0.27019647 1.4631339 3.7080617
-0.24731117 1.4794118 3.7324815
-0.28251415 1.5263674 3.7054126
-0.2736662 1.565755 3.7140162
-0.2678493 1.55825 3.7123501
-0.23078233 1.5596672 3.6677234
-0.2725912 1.5827963 3.6584761
-0.24703942 -1.3624554 3.1499369
-0.21316534 -1.3028184 3.0426495
-0.19758895 -1.2905856 3.0256989
-0.23205659 -1.2245407 3.0798509
-0.21203738 -1.2292989 3.0444772
-0.2129419 -1.2130805 3.0984275
-0.2384418 -1.216913 3.0670831
-0.20176908 -1.1692986 3.0922515
-0.21749154 -1.1766926 3.136924
-0.20447733 -1.1491638 3.063355
-0.21474814 -1.1419094 3.1179953
-0.21997903 -1.140936 3.1566353
-0.21963869 -1.103611 3.119302
-0.21455701 -1.0894301 3.1336908
-0.2275456 -1.1059033 3.1048055
-0.20355703 -1.1164097 3.1411326
-0.2082365 -1.0723159 3.1347473
-0.21891962 -1.0656486 3.1880946
-0.21341643 -1.0304791 3.1867073
-0.21793403 -1.0176727 3.1668487
-0.22603945 -1.0136063 3.2159348
-0.24081501 -0.98674625 3.1894622
-0.19662695 -0.9585467 3.1775262
-0.25270748 -0.96068758 3.1981523
-0.21020482 -0.9633137 3.186094
-0.22283453 -0.91332644 3.2266176
-0.2103512 -0.90255541 3.220933
-0.20677784 -0.88468963 3.2553263
-0.21784315 -0.88335991 3.2332747
-0.20816179 -0.85737872 3.2554264
-0.24248968 -0.84809136 3.2534471
-0.19851521 -0.82242393 3.2733629
-0.20440438 -0.79481077 3.2904282
-0.24581487 -0.78432131 3.2730134
-0.20446312 -0.79568613 3.2848213
-0.22076547 -0.77246445 3.3336742
-0.22446713 -0.75010705 3.3036132
-0.24376027 -0.72791481 3.3252108
-0.24021567 -0.70593572 3.3306861
-0.23791958 -0.72580492 3.3767071
-0.20961122 -0.72049642 3.36218
-0.21209551 -0.66278714 3.3854024
-0.24571024 -0.64451891 3.3682635
-0.21401474 -0.65316129 3.3763189
-0.22028898 -0.61251253 3.3725696
-0.24744378 -0.59496057 3.4165344
-0.25309297 -0.56529307 3.3975716
-0.27250713 -0.58157241 3.3987236
-0.19893573 -0.57707262 3.3387465
-0.23324473 -0.50221181 3.3740819
-0.24121772 -0.51424849 3.404952
-0.22720797 -0.50610334 3.3635609
-0.22014892 -0.47568166 3.3449931
-0.22262834 -0.48859847 3.3514771
-0.23455049 -0.45890361 3.3433747
-0.22763246 -0.44313422 3.3404479
-0.19978738 -0.38325632 3.3763061
-0.22922391 -0.40714225 3.3761983
-0.24908939 -0.38601288 3.3959835
-0.24270697 -0.36881509 3.3839066
-0.24375297 -0.33997431 3.4525697
-0.24915168 -0.32258573 3.5261669
-0.23375763 -0.31788784 3.5682261
-0.24343574 -0.29902923 3.5483003
-0.26696175 -0.31093156 3.5513906
-0.24080479 -0.24220082 3.5699706
-0.27794161 -0.25746089 3.5750141
-0.26690838 -0.21120639 3.5863316
-0.25841135 -0.18813336 3.6044369
-0.27561677 -0.16200164 3.616796
-0.29726812 -0.17008637 3.6736603
-0.26829991 -0.18419141 3.6213109
-0.27573261 -0.087718248 3.6656327
-0.29458678 -0.11023097 3.6700051
-0.28219366 -0.046901528 3.6875453
-0.28370428 -0.095858082 3.7007787
-0.23079902 -0.03526954 3.6892443
-0.25622514 -0.019220196 3.7172432
-0.26069421 -0.030697066 3.7130811
-0.26158354 -0.012746518 3.7473958
-0.29843688 0.036303941 3.7498605
-0.28939259 0.033223979 3.7502179
-0.25792575 0.080881998 3.7895148
-0.29457253 0.096779577 3.7492886
-0.2896052 0.12063608 3.7974451
-0.28495499 0.11993614 3.8008177
-0.29261354 0.15616837 3.8055701
-0.26487896 0.22671551 3.7937706
-0.23132607 0.18805996 3.8030887
-0.2815598 0.21005896 3.8243277
-0.27004004 0.27909657 3.8371899
-0.29446611 0.24811262 3.883785
-0.30170554 0.27338535 3.8854027
-0.26321226 0.30100796 3.9213274
-0.26176199 0.35451621 3.9090009
-0.26987597 0.36549702 3.9554989
-0.23878133 0.40872797 3.9280221
-0.26095638 0.41210195 3.9518573
-0.24353266 0.44418368 3.9666071
-0.26329371 0.42015544 3.9749987
-0.2915338 0.47000763 3.98175
-0.26928586 0.48780295 3.9717374
-0.29128098 0.53281873 4.0265856
-0.27475959 0.57594812 4.0517607
-0.27651531 0.60120159 4.0616899
-0.30118108 0.57870966 4.0651999
-0.30134234 0.59851116 4.0556779
-0.28405911 0.61635315 4.0543761
-0.27556586 0.64311457 4.1160355
-0.28396779 0.66141725 4.104917
-0.27464265 0.72807169 4.1271005
-0.3106724 0.77109981 4.21944
-0.28730088 0.76307005 4.1862817
-0.29267624 0.81240034 4.1835217
-0.25591058 0.85646498 4.2025204
-0.32231075 0.94692755 4.740273
-0.30971724 0.94950008 4.661458
-0.33275655 0.9733364 4.6087475
-0.2996515 1.0106058 4.5519199
-0.35290039 1.014352 4.5599108
-0.32811111 1.0135423 4.487052
-0.3257511 1.0371073 4.4473047
-0.30313295 1.0466348 4.3984027
-0.29737657 1.064937 4.3392034
-0.29280126 1.1185126 4.3695478
-0.29823375 1.104143 4.3506808
-0.28712624 1.1192664 4.2771764
-0.30104592 1.130942 4.237195
-0.33510673 1.1367542 4.2652493
-0.34004399 1.1964066 4.1828632
-0.31054756 1.1577966 4.1807652
-0.28662738 1.1935838 4.1663451
-0.29626718 1.2254171 4.1030993
-0.26966769 1.2073361 4.0491881
-0.2928552 1.2797077 4.0868659
-0.27199349 1.2740579 4.0750637
-0.32475194 1.2607759 4.0588131
-0.32793799 1.2673665 4.0310326
-0.27627459 1.334384 4.0229425
-0.29337019 1.3310834 3.9876451
-0.3014715 1.2790149 3.9260607
-0.26070893 1.3443564 3.9085174
-0.27039295 1.3232423 3.904958
-0.2949391 1.3464233 3.8680353
-0.23754503 1.4126877 3.8681107
-0.28226352 1.3883575 3.8343089
-0.26919082 1.3932836 3.7689121
-0.26563811 1.388115 3.8137419
-0.26532492 1.433105 3.7501168
-0.28262389 1.4511228 3.7227144
-0.22502378 1.4324141 3.6828344
-0.25112 1.429522 3.6792464
-0.24521327 1.4478235 3.6776047
-0.25180966 1.5130342 3.7124755
-0.25982061 1.5583931 3.7036793
-0.26884493 1.5320716 3.7148581
-0.25238499 1.5328001 3.6671503
-0.2699568 1.551635 3.6717098
-0.25366446 -1.3767326 3.3086481
-0.23914455 -1.2581563 2.9485579
-0.22452448 -1.2447664 3.0433502
-0.20670946 -1.2394301 3.1073141
-0.21987861 -1.2400289 3.0432484
-0.19986941 -1.2364889 3.0730731
-0.20979318 -1.2046478 3.0954082
-0.20636263 -1.2026441 3.0840628
-0.19485208 -1.1604207 3.0835397
-0.20810661 -1.1610694 3.0819995
-0.23165344 -1.1359131 3.1305552
-0.23923278 -1.1377589 3.0820479
-0.19197294 -1.1060319 3.1151989
-0.23735063 -1.0913182 3.136765
-0.23277327 -1.1049813 3.1517198
-0.23727131 -1.0802672 3.1796107
-0.24240804 -1.0693575 3.153693
-0.24033068 -1.084528 3.1448789
-0.21422814 -1.0234625 3.177958
-0.23687229 -1.0458592 3.1552346
-0.22047883 -0.97733742 3.1378486
-0.23779356 -0.98519808 3.1805232
-0.24338326 -0.96279204 3.1897998
-0.24852902 -0.96592695 3.1879706
-0.24835849 -0.98012424 3.2266116
-0.26082015 -0.96006644 3.2441902
-0.25452644 -0.91765922 3.2253091
-0.24450719 -0.90025938 3.2205517
-0.21961516 -0.88555539 3.2533331
-0.26742375 -0.85530621 3.2218776
-0.2455308 -0.82071263 3.2367682
-0.20612283 -0.78489381 3.2512672
-0.20412304 -0.82176191 3.267993
-0.21673411 -0.8006379 3.259413
-0.25377566 -0.79731554 3.3111417
-0.22863634 -0.79451227 3.2825878
-0.23795807 -0.75622177 3.341156
-0.23375486 -0.74774015 3.3318417
-0.22968733 -0.72564524 3.3781338
-0.22535001 -0.69524205 3.3076444
-0.21917984 -0.67938519 3.337441
-0.21432048 -0.68934178 3.3678579
-0.25607404 -0.6496799 3.3539948
-0.26292801 -0.64850426 3.3542073
-0.22638558 -0.62658668 3.3827705
-0.23132066 -0.65937668 3.3776436
-0.23021646 -0.61701667 3.377645
-0.26292828 -0.55988944 3.406585
-0.2170063 -0.54901892 3.3815296
-0.24455689 -0.53585935 3.3489738
-0.21445189 -0.51353884 3.3334522
-0.21318643 -0.49023587 3.3634751
-0.26558861 -0.4945617 3.3548837
-0.23514162 -0.48883423 3.3539238
-0.22099695 -0.46463397 3.3636649
-0.20382817 -0.44663802 3.373435
-0.21552759 -0.41486865 3.4076319
-0.24251394 -0.38556135 3.3894153
-0.21164289 -0.34946424 3.4061952
-0.2540634 -0.37366873 3.4146261
-0.25995445 -0.36790571 3.4429827
-0.24268545 -0.30283025 3.48982
-0.2248701 -0.28371084 3.5560167
-0.26528797 -0.35012642 3.5514648
-0.25663003 -0.24604264 3.5674598
-0.19254865 -0.2680473 3.5942812
-0.25075114 -0.26826066 3.5543108
-0.26821297 -0.21389347 3.5715342
-0.25578141 -0.19576675 3.6187747
-0.23888472 -0.1908702 3.6244404
-0.27855676 -0.15063928 3.5769973
-0.24139938 -0.13786633 3.6148114
-0.21605134 -0.11083088 3.6454937
-0.23517962 -0.081002027 3.6567826
-0.23236884 -0.10487125 3.6729615
-0.29994482 -0.091680393 3.6913717
-0.28990555 -0.032176837 3.7247851
-0.26013163 -0.070345506 3.6688342
-0.28540659 -0.012317238 3.7182157
-0.24677217 0.015008342 3.7351081
-0.29407871 0.02478704 3.7099395
-0.25149086 0.038889296 3.7252493
-0.28097081 0.072071336 3.7661824
-0.26239845 0.081207372 3.7467291
-0.24309081 0.12542537 3.7600155
-0.26332599 0.14566557 3.8126934
-0.2727555 0.14540438 3.7947538
-0.27512115 0.17581715 3.801842
-0.28884357 0.21104826 3.8362217
-0.28420982 0.18844959 3.8315089
-0.26125985 0.22706734 3.8672988
-0.30845112 0.26960394 3.8471193
-0.25711009 0.28795701 3.9068537
-0.29040292 0.29354084 3.8363504
-0.27558053 0.32796645 3.8880088
-0.27926114 0.34717014 3.8694448
-0.29231167 0.37044072 3.9098954
-0.28086439 0.37673885 3.876195
-0.24863216 0.37848589 3.9444001
-0.28040889 0.43608731 3.9375849
-0.32027972 0.47537887 3.9734144
-0.28135052 0.50301856 3.9713984
-0.27624831 0.49549937 4.0110278
-0.26702595 0.48719013 4.0360608
-0.27999428 0.58132833 4.0318298
-0.28904361 0.58400285 4.0564532
-0.2870023 0.6060335 4.0182872
-0.28927219 0.59681016 4.069869
-0.28148481 0.68395668 4.0626011
-0.28674546 0.70030135 4.1049933
-0.2666994 0.69515544 4.1206989
-0.30889323 0.70975226 4.0762868
-0.29219353 0.7569316 4.1360817
-0.29676402 0.77314705 4.1361194
-0.28649053 0.80436283 4.1511154
-0.319372 0.82268047 4.1691542
-0.31898299 0.83529872 4.2066813
-0.29570299 0.86107337 4.1936011
-0.29413921 0.89288801 4.2536402
-0.27055413 0.93163383 4.2771478
-0.27297735 0.9555971 4.2743282
-0.30908939 1.005295 4.3105459
-0.30745175 1.0066141 4.3385434
-0.29905006 1.0367465 4.4206505
-0.3188138 1.0848002 4.3406463
-0.28070906 1.0957906 4.3551369
-0.26854914 1.0588794 4.315547
-0.28214279 1.1411192 4.2644749
-0.29513869 1.1309279 4.2151027
-0.29907379 1.1627856 4.2347708
-0.28539428 1.1437173 4.1946502
-0.28278738 1.1758267 4.1502409
-0.29298997 1.1704247 4.1332273
-0.28615609 1.1768904 4.0822029
-0.27641833 1.2354457 4.0666809
-0.27742732 1.2578068 4.0381536
-0.30291775 1.2691456 4.0843186
-0.27463242 1.2755939 4.0560551
-0.26588964 1.3102926 4.0461416
-0.25835332 1.2843753 3.9306908
-0.25872016 1.2777464 3.9698873
-0.26229277 1.3498559 3.9114885
-0.26113161 1.3238624 3.8968499
-0.29670545 1.3486648 3.8653996
-0.28040621 1.3758973 3.8838212
-0.26713294 1.3679785 3.8377762
-0.27711499 1.3954498 3.8132775
-0.24922962 1.3930365 3.807632
-0.26485875 1.4270616 3.7484729
-0.23130214 1.4064742 3.7299542
-0.2785686 1.4365075 3.7053688
-0.25601584 1.4208319 3.6515555
-0.25394681 1.4255207 3.6755407
-0.2595621 1.474596 3.724942
-0.23399894 1.5274855 3.7331448
-0.26326808 1.5058 3.7020392
-0.26319641 1.5313157 3.6888645
-0.24804258 1.557664 3.6467781
-0.2608636 -1.4475424 3.438755
-0.24293885 -1.3320231 3.1292052
-0.18233721 -1.274961 3.0743732
-0.17740582 -1.241345 3.0437701
-0.15784207 -1.2326748 3.0517302
-0.19682853 -1.2335628 3.0869658
-0.23227732 -1.2066329 3.0678146
-0.21312137 -1.2296721 3.0453796
-0.22709404 -1.1917409 3.1045172
-0.21969098 -1.1520822 3.1124349
-0.2035166 -1.1140758 3.1057196
-0.23596513 -1.115595 3.1134777
-0.20858972 -1.1368284 3.1325927
-0.20929246 -1.107071 3.0901968
-0.21444456 -1.1230755 3.1097672
-0.19484794 -1.0742667 3.1067317
-0.20184262 -1.0511682 3.14451
-0.21698225 -1.0557523 3.1591306
-0.19816445 -1.0834994 3.1586413
-0.254839 -1.0028633 3.1540368
-0.18672942 -1.0179727 3.1353581
-0.22712548 -0.9998064 3.1863084
-0.22451508 -1.0012982 3.2008729
-0.2260126 -0.96062934 3.1765883
-0.19093998 -0.93088454 3.212997
-0.21774845 -0.92677641 3.2077305
-0.2191515 -0.95424813 3.216656
-0.23573148 -0.87138104 3.2452369
-0.22300901 -0.88760948 3.219579
-0.21499781 -0.88704282 3.258105
-0.23733377 -0.84831029 3.2194998
-0.20399082 -0.83830899 3.239254
-0.22882117 -0.82768697 3.2620556
-0.21782456 -0.83777696 3.2508125
-0.24045904 -0.79795504 3.2871389
-0.22815065 -0.77099645 3.3083067
-0.21457933 -0.73196727 3.2665188
-0.2143345 -0.7522707 3.330442
-0.2131034 -0.72222447 3.2934732
-0.23104529 -0.67026746 3.3121731
-0.22700688 -0.69661206 3.3339872
-0.21356267 -0.66619927 3.3102183
-0.21758226 -0.61639166 3.3205895
-0.24524859 -0.65660089 3.356231
-0.20359302 -0.63124388 3.3878803
-0.25243488 -0.60887861 3.4087234
-0.21094206 -0.60879958 3.4053984
-0.24722165 -0.61546844 3.3846941
-0.23475192 -0.59690833 3.3759654
-0.2594749 -0.55175972 3.3500326
-0.22592205 -0.53371179 3.3598807
-0.20899731 -0.5575254 3.2905376
-0.22113802 -0.51776284 3.3504889
-0.21301435 -0.47244689 3.3144202
-0.22381212 -0.46497035 3.3252902
-0.22707225 -0.43352783 3.3605418
-0.23501419 -0.38602194 3.3738198
-0.23325816 -0.43298572 3.357074
-0.20669171 -0.37259173 3.4057617
-0.2508592 -0.38973972 3.4047768
-0.21699737 -0.35813674 3.4215565
-0.24484187 -0.31675339 3.4632521
-0.23059671 -0.32012025 3.514698
-0.22094154 -0.3049112 3.5086706
-0.22841848 -0.29558608 3.5343213
-0.24764737 -0.2828376 3.555624
-0.20170553 -0.2174519 3.5556395
-0.22838789 -0.24622823 3.5953112
-0.2207392 -0.24999666 3.5927205
-0.30018255 -0.1525985 3.6118886
-0.24642529 -0.17277716 3.6356022
-0.24762207 -0.17742166 3.5844483
-0.22075881 -0.13283336 3.6399844
-0.24667491 -0.12439084 3.651247
-0.24864937 -0.092468657 3.6270576
-0.27895895 -0.039942089 3.6449754
-0.23390067 -0.055280898 3.6705606
-0.28485242 -0.021229694 3.638485
-0.21236455 -0.019318879 3.6966288
-0.26266947 0.023603939 3.7253277
-0.26020744 0.048321933 3.7106211
-0.27138793 0.029584859 3.737107
-0.24609976 0.094709493 3.7262435
-0.22630544 0.066234753 3.7412667
-0.25969386 0.13235784 3.7539783
-0.27485907 0.12335877 3.7691591
-0.24533468 0.14630595 3.7625797
-0.2749545 0.18931441 3.7746942
-0.25465569 0.17477764 3.8078673
-0.21624358 0.23127273 3.8663666
-0.25707385 0.22449487 3.7809012
-0.26212889 0.23186027 3.8562429
-0.25378266 0.28041205 3.8440497
-0.24731417 0.29494026 3.8658938
-0.27512345 0.34099078 3.8936198
-0.28648823 0.36037949 3.9025443
-0.24434325 0.36246553 3.8676043
-0.25712177 0.38958257 3.8637016
-0.2902247 0.39762518 3.9205682
-0.2478372 0.42189768 3.9610281
-0.2740196 0.47215611 3.9725122
-0.2951532 0.46816999 3.9393151
-0.27799892 0.50909483 3.9490187
-0.28199786 0.53928143 4.0210919
-0.28261378 0.54487795 3.9952214
-0.25872767 0.58758074 4.0370946
-0.27215624 0.59921348 4.0152917
-0.27883634 0.58201331 4.055316
-0.26966408 0.64103895 4.0158424
-0.3320888 0.64924461 4.0680742
-0.25940728 0.65651619 4.0899849
-0.26976785 0.69281697 4.0766144
-0.29669556 0.76410848 4.092669
-0.26734638 0.77053982 4.1101141
-0.2487745 0.78823042 4.1126323
-0.2970697 0.8323521 4.1481705
-0.24680533 0.85046226 4.1664143
-0.29177493 0.87719107 4.1932297
-0.3059091 0.86320394 4.1537576
-0.23872364 0.9317866 4.1883268
-0.26993588 0.92061883 4.212976
-0.25578582 0.98079109 4.2314019
-0.24945204 1.0195915 4.2288384
-0.26350552 1.0014594 4.2634501
-0.26870385 1.0515635 4.2841878
-0.31160927 1.0597852 4.3352675
-0.29754966 1.066314 4.2967329
-0.29698873 1.1224751 4.3161278
-0.27710581 1.1196682 4.2606893
-0.28861246 1.1268842 4.2230344
-0.24396841 1.1493757 4.2047977
-0.28561312 1.1802748 4.2155104
-0.26924753 1.1969323 4.1359019
-0.27350312 1.1942906 4.1456776
-0.28547111 1.2461975 4.0821652
-0.27096799 1.2285736 4.0329065
-0.27743548 1.2588223 4.0683265
-0.27066541 1.2934881 4.048943
-0.27265206 1.276639 4.0033555
-0.26055273 1.2919799 3.9598691
-0.26447883 1.3288385 3.9383357
-0.2942321 1.3406199 3.9553616
-0.23600477 1.3258039 3.9549551
-0.24785776 1.3571755 3.9083455
-0.24237618 1.334201 3.8818891
-0.26263368 1.3891724 3.8467696
-0.25671917 1.4066516 3.816005
-0.22371203 1.4067935 3.8128319
-0.30505246 1.4312347 3.7809606
-0.2605623 1.4177957 3.7551506
-0.26463991 1.4340024 3.7093687
-0.2822907 1.4469 3.6990576
-0.23851526 1.4443696 3.7034254
-0.27510348 1.4850926 3.7052276
-0.26501447 1.5380325 3.6866374
-0.2566368 1.5187577 3.716187
-0.25037807 1.5302618 3.6844909
-0.26057294 1.5851769 3.6832612
-0.2496722 1.5544355 3.6562879
-0.1880627 -1.3241618 3.1641738
-0.19110045 -1.2371798 2.954711
-0.2000808 -1.2349271 3.0460069
-0.20919299 -1.2225505 2.9942479
-0.19527139 -1.2065645 3.015471
-0.18915305 -1.2053596 3.0747757
-0.19777527 -1.1781553 3.0894136
-0.21627577 -1.2008723 3.0729244
-0.21566828 -1.1656891 3.0936482
-0.19012667 -1.1529927 3.0742595
-0.19611453 -1.1474274 3.0918624
-0.18602601 -1.1256 3.1111143
-0.19953705 -1.1257048 3.112226
-0.20531686 -1.1251585 3.1107113
-0.21163067 -1.0806717 3.1164
-0.19405116 -1.1072295 3.1436617
-0.19834155 -1.0702718 3.1640654
-0.20754218 -1.0801818 3.1483307
-0.20634913 -1.0276883 3.1389599
-0.20246784 -0.98581141 3.2128994
-0.24006286 -0.98964262 3.1750298
-0.21027994 -0.98522151 3.1451497
-0.19798775 -0.99385726 3.2065718
-0.18829666 -0.91537875 3.1625226
-0.20260151 -0.9427036 3.2211053
-0.22634368 -0.94108707 3.1641328
-0.20400989 -0.95968866 3.1906779
-0.22351155 -0.94884264 3.2025926
-0.20024034 -0.86490214 3.2056949
-0.20434873 -0.87979615 3.2170014
-0.21142907 -0.85817045 3.2870524
-0.23026742 -0.81031352 3.2585335
-0.22751063 -0.87273049 3.2350082
-0.24868535 -0.79245961 3.2591081
-0.24093859 -0.76671654 3.2643747
-0.20696442 -0.76838183 3.2539437
-0.21815081 -0.76691139 3.3116946
-0.21226601 -0.71876663 3.324271
-0.2360467 -0.70899618 3.296824
-0.21953207 -0.70845455 3.2966912
-0.23431857 -0.64529961 3.3254814
-0.18358524 -0.64494503 3.3744628
-0.21264102 -0.62957788 3.325043
-0.2277147 -0.63091111 3.3721795
-0.24047101 -0.62145889 3.3411169
-0.17698561 -0.61622316 3.3916206
-0.20205922 -0.59215117 3.3645835
-0.25025642 -0.55523032 3.383703
-0.21739158 -0.57293165 3.346107
-0.19744521 -0.53750795 3.3784988
-0.23335595 -0.53034544 3.3430724
-0.23088397 -0.48365408 3.3563774
-0.23964633 -0.45138583 3.3414736
-0.22315721 -0.46252397 3.363281
-0.193854 -0.46254599 3.3902564
-0.23624131 -0.43179616 3.4181373
-0.22742546 -0.38810059 3.3942025
-0.17303714 -0.39776874 3.3941493
-0.21777983 -0.40240544 3.4269743
-0.24555472 -0.36440587 3.4265392
-0.23413961 -0.33843732 3.4501989
-0.1975494 -0.33251861 3.5264249
-0.21308163 -0.32152012 3.5264564
-0.23643829 -0.30093038 3.5440445
-0.17904037 -0.25183243 3.5304806
-0.21653989 -0.26617655 3.5866745
-0.23174815 -0.26793528 3.5704737
-0.25658363 -0.20478651 3.5768552
-0.26964536 -0.16688412 3.591732
-0.21700522 -0.19910203 3.5782056
-0.2656498 -0.19673851 3.5998421
-0.26322821 -0.10583271 3.6259069
-0.24700797 -0.10532438 3.6419423
-0.23142977 -0.10301095 3.638196
-0.24066804 -0.1077826 3.6307125
-0.2455118 -0.040721416 3.6387489
-0.26076239 -0.064711176 3.6722128
-0.23588593 -0.014412689 3.6654148
-0.23033987 -0.0074745687 3.6765883
-0.23992288 0.028290622 3.6756146
-0.2729848 0.066882044 3.6836178
-0.22144395 0.052720807 3.6910219
-0.22203223 0.064286344 3.7203426
-0.27609131 0.10565394 3.7516863
-0.26837409 0.10228017 3.7518849
-0.26547909 0.14711405 3.7744305
-0.24760771 0.17853647 3.8142653
-0.22891456 0.15268353 3.7825825
-0.24788861 0.2360841 3.7807047
-0.24241091 0.21401909 3.7815056
-0.29305407 0.23452704 3.8178694
-0.2476474 0.27215967 3.8098345
-0.2457715 0.28984439 3.8382831
-0.27281862 0.31708536 3.8537915
-0.24475661 0.31126431 3.8456922
-0.27880046 0.37275484 3.8657026
-0.27387604 0.35214585 3.8979833
-0.25168142 0.3814027 3.9092035
-0.27393696 0.43987411 3.8994181
-0.27542862 0.43024305 3.9353197
-0.24889804 0.46059948 3.9284105
-0.2602087 0.5097928 3.9458866
-0.25395375 0.4837468 3.9424484
-0.29112333 0.54324776 3.9897554
-0.29112321 0.56655025 4.002203
-0.30294085 0.57786006 3.9989884
-0.26561204 0.60999942 3.9802096
-0.23377794 0.60789502 4.0265479
-0.27632925 0.65750057 4.0272517
-0.26317808 0.68580472 4.0385838
-0.26172736 0.68847036 4.0674772
-0.26400784 0.72312272 4.0981774
-0.23936871 0.74664629 4.0888181
-0.27326536 0.74527198 4.0873051
-0.26196682 0.76254064 4.0924635
-0.25519389 0.79637539 4.0943818
-0.25574157 0.83572751 4.1783838
-0.28640327 0.86424947 4.1490822
-0.26637092 0.95547056 4.1544247
-0.28640288 0.89129746 4.1952415
-0.30407342 0.95045537 4.1853647
-0.294276 0.98269534 4.2415495
-0.26391241 1.0141987 4.2307992
-0.28222686 1.018505 4.2505693
-0.29493013 1.0488665 4.2220464
-0.28409812 1.0692774 4.2883935
-0.26560783 1.1271858 4.3183398
-0.27164701 1.1185298 4.2589264
-0.30122024 1.1539254 4.2571573
-0.24262097 1.1411467 4.1799827
-0.26104072 1.1627665 4.1728811
-0.2719824 1.2099446 4.1298461
-0.28459257 1.2138225 4.0862403
-0.27961072 1.2139133 4.0778575
-0.25501329 1.2559628 4.0495825
-0.2823576 1.2531749 4.0075693
-0.2696602 1.2916565 4.0329728
-0.27329308 1.2712141 4.0299478
-0.29110169 1.321457 4.0011644
-0.27954194 1.3218671 3.9984095
-0.26636821 1.3363225 3.939728
-0.25681835 1.3279636 3.9038
-0.27199221 1.3266487 3.8975883
-0.24899779 1.3387237 3.8490338
-0.23880887 1.3374481 3.8529952
-0.22570431 1.377564 3.8022916
-0.25136974 1.398592 3.8099711
-0.2433643 1.4118181 3.7563012
-0.23312949 1.4225588 3.7478642
-0.25311324 1.4598796 3.7144623
-0.22151649 1.4623438 3.7345114
-0.22653741 1.4660379 3.6834641
-0.23137443 1.4651135 3.6812942
-0.25240135 1.4746423 3.7013626
-0.23970012 1.5070195 3.6879864
-0.23953246 1.5548329 3.6867929
-0.23703773 1.5438989 3.6832547
-0.2358156 1.5921477 3.6443491
-0.22300243 -1.4084702 3.2821198
-0.19822858 -1.245072 2.9854124
-0.18237692 -1.2498339 3.0742433
-0.1820333 -1.2806582 3.0444725
-0.22006781 -1.2049742 3.0157378
-0.20376781 -1.2247112 3.0658581
-0.19978777 -1.2181635 3.0436099
-0.20838118 -1.1827896 3.035835
-0.2083545 -1.1624725 3.0340996
-0.21486348 -1.1662517 3.0565915
-0.18778026 -1.1277821 3.0930831
-0.20624687 -1.0776527 3.1490402
-0.20259635 -1.1109599 3.0643301
-0.21546622 -1.1071647 3.0984085
-0.17944449 -1.0802888 3.1156735
-0.21018803 -1.0730488 3.0729065
-0.18513633 -1.0633554 3.1405213
-0.22298624 -1.0339614 3.1072173
-0.18963891 -1.0277994 3.1342962
-0.20397969 -0.99807447 3.1603892
-0.22777718 -1.0268785 3.1715467
-0.17728135 -0.95520008 3.1519306
-0.1937276 -0.99307799 3.170507
-0.21835093 -0.9890703 3.1827912
-0.20415327 -0.9187308 3.1766546
-0.21198446 -0.93612641 3.2313192
-0.18257658 -0.90658057 3.1980848
-0.19105861 -0.89559829 3.226078
-0.18666217 -0.87335318 3.22208
-0.21291839 -0.86069769 3.2383244
-0.21639159 -0.84495932 3.2177582
-0.21440643 -0.82849771 3.2250679
-0.20505694 -0.81427574 3.255012
-0.15801376 -0.83237153 3.2747276
-0.1940036 -0.79756272 3.2615008
-0.19209971 -0.76987571 3.2486417
-0.2299342 -0.72958702 3.2970488
-0.24421801 -0.70966494 3.3168454
-0.17518324 -0.69697112 3.280659
-0.22027533 -0.71400553 3.3004217
-0.23102343 -0.70191801 3.298408
-0.20895913 -0.66130054 3.3277786
-0.17899108 -0.6886549 3.3603494
-0.23262973 -0.65355599 3.3382952
-0.21794747 -0.57571512 3.3717425
-0.18800473 -0.63190818 3.3479805
-0.18685012 -0.59179354 3.3748121
-0.21638602 -0.60956532 3.4120133
-0.22953008 -0.55405915 3.371248
-0.21572584 -0.51956558 3.3753445
-0.21388693 -0.54381895 3.3479903
-0.23294365 -0.47818729 3.3240252
-0.20413379 -0.46329755 3.3783405
-0.20557253 -0.4962675 3.3293834
-0.22098085 -0.42558011 3.3478742
-0.25121492 -0.43487704 3.3673434
-0.21485911 -0.40553755 3.3931966
-0.22336739 -0.36689594 3.4403977
-0.2096687 -0.33771959 3.4093084
-0.18732588 -0.35263583 3.4063334
-0.23731858 -0.34531868 3.4058299
-0.22772147 -0.35333586 3.4845111
-0.2595253 -0.307028 3.5144343
-0.22325289 -0.32270098 3.4894121
-0.2466542 -0.29795206 3.5380013
-0.19721274 -0.2687214 3.5415051
-0.22898421 -0.21348423 3.5053782
-0.23392335 -0.21323504 3.5830197
-0.20391417 -0.19601071 3.5615501
-0.2631394 -0.2018851 3.5871077
-0.216181 -0.19423884 3.546098
-0.24300455 -0.18855065 3.6249208
-0.22306587 -0.11790819 3.6470041
-0.22593594 -0.10729116 3.6076553
-0.21149597 -0.075478911 3.6118588
-0.2188358 -0.056526087 3.63959
-0.21804033 -0.030658936 3.6236775
-0.26008919 -0.010640983 3.6877425
-0.22158928 -0.028369568 3.6562884
-0.23239049 0.013840323 3.671427
-0.24787001 0.043671958 3.6469817
-0.2122774 0.042244915 3.7146852
-0.24688523 0.060633313 3.7004306
-0.19107431 0.087190799 3.7336104
-0.26508683 0.14090793 3.7594652
-0.24932207 0.13927178 3.7484379
-0.23880711 0.15410949 3.754458
-0.24210517 0.15767565 3.7715535
-0.25743508 0.17675705 3.7898493
-0.26363602 0.20967439 3.7584751
-0.25499356 0.24159442 3.8120506
-0.26057655 0.293201 3.8079758
-0.2507875 0.30963549 3.8339689
-0.23822406 0.29201415 3.863102
-0.25298688 0.33258906 3.8803372
-0.26701683 0.38295329 3.8785233
-0.26439181 0.36891621 3.9046116
-0.2523464 0.36734283 3.8978865
-0.25284615 0.42348659 3.9139099
-0.24483356 0.46950483 3.9280505
-0.3041935 0.4457421 3.912061
-0.22639026 0.48225203 3.9192734
-0.24216698 0.5193758 3.8875504
-0.22476435 0.51560938 3.9385648
-0.238884 0.53759396 3.9489448
-0.2489683 0.57876551 3.9750125
-0.24355313 0.63000959 4.01894
-0.26042107 0.6151256 3.9873235
-0.2503188 0.62969619 4.0034318
-0.27165207 0.66205364 4.0262518
-0.27411345 0.67995334 4.0413661
-0.26492369 0.72530198 4.0398288
-0.24413635 0.73666179 4.0304112
-0.27878499 0.76076639 4.0544591
-0.29862559 0.75990033 4.1140828
-0.25190574 0.8016606 4.0771532
-0.24763896 0.83885598 4.1271453
-0.26863354 0.83107889 4.1354318
-0.25503042 0.89725071 4.1467037
-0.23012088 0.93722665 4.184649
-0.2736598 0.96727991 4.1421533
-0.31318718 0.95953518 4.2127552
-0.26741484 0.97237098 4.1812663
-0.27894211 1.0078303 4.2086034
-0.26058638 1.0279218 4.2424121
-0.2298539 1.0737792 4.2473006
-0.28825891 1.0824432 4.2864957
-0.25579157 1.1044253 4.2880998
-0.26611355 1.1340511 4.2488852
-0.27205226 1.1640992 4.237186
-0.26452988 1.1545925 4.2140164
-0.25522155 1.190541 4.2283421
-0.23965654 1.2035857 4.1260958
-0.26345652 1.1986467 4.0835896
-0.25877395 1.208933 4.08814
-0.22323455 1.2227312 4.0237379
-0.26148385 1.2478745 4.0335407
-0.24060589 1.2846824 4.0621972
-0.26542976 1.2864952 3.9927933
-0.25612295 1.2799709 3.9804015
-0.26351196 1.3052214 3.9896083
-0.2546922 1.2742872 3.9481814
-0.26883727 1.3258772 3.9021125
-0.24751121 1.3490715 3.8972542
-0.26297325 1.3791647 3.8494365
-0.25262851 1.401836 3.8328109
-0.25751081 1.3971864 3.8490653
-0.22571924 1.4307505 3.8355806
-0.20450611 1.4266193 3.7667363
-0.25967169 1.4362211 3.7529361
-0.2201207 1.4382418 3.7136035
-0.21335435 1.465623 3.6833727
-0.25623667 1.4562013 3.7133594
-0.19231908 1.5136168 3.6874764
-0.25356013 1.5128274 3.6719036
-0.21177454 1.564532 3.6916361
-0.25543317 1.5147148 3.679853
-0.23060791 1.5630094 3.6568389
-0.2022303 -1.4459295 3.4617822
-0.2201654 -1.3531873 3.0814073
-0.1583133 -1.2571965 3.0272183
-0.17888366 -1.2443093 3.0160661
-0.20738155 -1.211253 3.0427432
-0.18282157 -1.2013459 3.0232606
-0.20625791 -1.2333889 3.0659821
-0.20440172 -1.1889452 3.1127462
-0.18791157 -1.1509537 3.0401828
-0.19032533 -1.170647 3.0868266
-0.20792307 -1.1528356 3.0495102
-0.15925834 -1.1236763 3.0744164
-0.18285933 -1.1145799 3.100621
-0.18841019 -1.0861509 3.0993056
-0.224995 -1.0827534 3.102742
-0.19489732 -1.1086137 3.1237404
-0.20998098 -1.0659506 3.152503
-0.22028746 -1.0614567 3.1422775
-0.20260666 -1.0035398 3.1350191
-0.17232618 -1.0137614 3.1512427
-0.23438126 -1.030965 3.1742778
-0.18730766 -0.96499795 3.1843126
-0.18060324 -0.99166191 3.1678839
-0.22488394 -0.96297723 3.1704886
-0.1848923 -0.95227557 3.2149491
-0.18879746 -0.93452972 3.1740983
-0.22515561 -0.94650733 3.2108006
-0.19367301 -0.90537441 3.1746051
-0.20341036 -0.90822029 3.1748283
-0.20130952 -0.81621242 3.2080932
-0.22471952 -0.86985797 3.239038
-0.18790433 -0.82257318 3.2717667
-0.20256674 -0.86887848 3.237992
-0.204926 -0.81493109 3.24194
-0.20597522 -0.81819451 3.2131283
-0.20447558 -0.74542373 3.2960663
-0.18045655 -0.76301402 3.2998228
-0.18970376 -0.74219739 3.2645485
-0.21515819 -0.73988551 3.3242874
-0.18659256 -0.72281075 3.3058565
-0.19446376 -0.700589 3.3385544
-0.16860956 -0.65723568 3.3156984
-0.20748122 -0.64966834 3.3182664
-0.22281148 -0.65659666 3.3247328
-0.21846408 -0.65181023 3.2998621
-0.23562007 -0.62161249 3.3787608
-0.20938797 -0.58193249 3.336797
-0.17520553 -0.57401073 3.3886783
-0.22746234 -0.55817777 3.3986537
-0.22018415 -0.53938097 3.32759
-0.24397102 -0.51992434 3.3557127
-0.19944929 -0.50654829 3.3417699
-0.21619071 -0.49365643 3.3444629
-0.23162623 -0.46754986 3.3616102
-0.15989585 -0.44445169 3.3581738
-0.2192958 -0.42534158 3.371099
-0.20543636 -0.42624852 3.3708925
-0.20119101 -0.3718476 3.3730729
-0.22567257 -0.35365817 3.3945136
-0.22746326 -0.39554751 3.3839722
-0.22417681 -0.36174613 3.4397936
-0.22680797 -0.28649768 3.4925346
-0.25052997 -0.30772844 3.4894743
-0.20957161 -0.29308411 3.5270042
-0.20732647 -0.25478542 3.5395751
-0.24581474 -0.24077013 3.5220902
-0.22544107 -0.24126481 3.5615842
-0.22732159 -0.22890261 3.5481172
-0.22304873 -0.23524541 3.5683458
-0.25026253 -0.20363869 3.5806363
-0.27376854 -0.1980533 3.5769958
-0.18351904 -0.1657518 3.5621164
-0.22402686 -0.10832821 3.5829849
-0.22390641 -0.12443401 3.6066175
-0.21522 -0.086001992 3.6408703
-0.22248212 -0.092249431 3.6463423
-0.2373613 -0.04512006 3.6219747
-0.20672137 -0.065747492 3.662852
-0.23021334 -0.035834998 3.6494775
-0.23225464 -0.04814801 3.639276
-0.21034884 0.017129596 3.6923318
-0.22784771 0.080117315 3.7100146
-0.18383083 0.048225317 3.6781843
-0.19376303 0.059583444 3.7186475
-0.19591038 0.15721336 3.6996503
-0.18786028 0.15909547 3.7170646
-0.2517038 0.17826504 3.7305677
-0.21371737 0.18679315 3.7567172
-0.26950616 0.18285388 3.7508433
-0.20329383 0.19200279 3.8057547
-0.21437952 0.24830714 3.7926776
-0.21569441 0.23646753 3.7701252
-0.25861168 0.27520612 3.7944348
-0.24885684 0.31281096 3.8085511
-0.26601258 0.3125591 3.8469837
-0.26403958 0.32140791 3.8708038
-0.257626 0.35843289 3.8780677
-0.26957381 0.34474903 3.8612456
-0.22033857 0.41010141 3.883085
-0.19751355 0.41392782 3.8965974
-0.222526 0.41297692 3.8897419
-0.25385082 0.47891244 3.9295614
-0.24106428 0.5186097 3.9498067
-0.26944181 0.47736159 3.9543471
-0.25522318 0.50051475 3.9205282
-0.23186067 0.5552178 3.9324706
-0.24792163 0.58498752 4.0004869
-0.21426809 0.61792898 3.9656196
-0.27427092 0.62387627 3.9793489
-0.26116723 0.65066111 3.9914632
-0.25770113 0.66889805 4.0385618
-0.26253444 0.67470467 4.0491519
-0.25132066 0.71030968 4.0207238
-0.25358313 0.73185903 4.0667629
-0.27760771 0.80602491 4.0330949
-0.24240521 0.7993809 4.0723171
-0.26803398 0.85533565 4.0998926
-0.2395988 0.87092012 4.1125803
-0.28899544 0.87592196 4.1373997
-0.25765362 0.92385656 4.1045885
-0.21316378 0.96254897 4.1884518
-0.26652935 0.98150259 4.1564708
-0.29025319 0.95983136 4.1919246
-0.25270519 1.0108147 4.1769743
-0.25495982 1.038442 4.2403193
-0.26084438 1.042145 4.1990619
-0.29445159 1.0652987 4.2175932
-0.24125293 1.1299137 4.2626853
-0.24244717 1.1436281 4.2325397
-0.25166515 1.143548 4.197957
-0.23001216 1.1791402 4.1706338
-0.24880314 1.1909964 4.1809554
-0.25736806 1.1898291 4.1477485
-0.25170341 1.2054664 4.1427884
-0.29668474 1.2182924 4.1155105
-0.27847588 1.2122717 4.048378
-0.21195558 1.2448604 4.0031486
-0.24275647 1.2655901 4.0125904
-0.25176299 1.2655464 4.0281572
-0.23369375 1.2865227 3.9946933
-0.22446226 1.3202382 3.9471843
-0.25484914 1.325163 3.9700651
-0.24139307 1.331107 3.9132264
-0.26697728 1.3643119 3.9124675
-0.21388629 1.3508594 3.8747838
-0.23150453 1.3853436 3.8284867
-0.24039991 1.39375 3.8142679
-0.23516029 1.4391539 3.8708417
-0.23619175 1.4173058 3.786603
-0.24228944 1.4178064 3.7426028
-0.22030017 1.4345193 3.7046528
-0.22429065 1.4412264 3.6999497
-0.22982004 1.4504387 3.6857326
-0.2415475 1.4718995 3.7050362
-0.23767516 1.5201917 3.7475324
-0.2110565 1.5405437 3.7182016
-0.22977555 1.5410695 3.7036946
-0.23166354 1.5438005 3.6315722
-0.20746878 1.5716883 3.6296368
-0.2227955 -1.3454294 3.1954947
-0.19337769 -1.2279105 2.8831444
-0.17716476 -1.2653564 3.049762
-0.17002814 -1.2257161 3.0212111
-0.22348759 -1.218462 3.0592742
-0.1925635 -1.1954603 3.0578074
-0.17161812 -1.1895288 3.057631
-0.19520664 -1.1368008 3.0418777
-0.18393289 -1.1600882 3.0540867
-0.17922987 -1.1538401 3.117033
-0.18688762 -1.1633668 3.0929463
-0.18694793 -1.0985324 3.0492957
-0.18137273 -1.1183379 3.079361
-0.1775053 -1.0968207 3.0995603
-0.18758844 -1.0797467 3.1159899
-0.18197712 -1.0932211 3.1174018
-0.14355345 -1.0556402 3.1045907
-0.18714455 -1.0188428 3.17805
-0.16848381 -1.0034679 3.1414416
-0.17302366 -1.004692 3.1528926
-0.18194717 -0.98142248 3.1658823
-0.20082034 -0.93679315 3.1534603
-0.21002688 -0.9524259 3.178386
-0.14507592 -0.94425821 3.1329787
-0.20198503 -0.9518742 3.1816349
-0.20537463 -0.92973012 3.2072964
-0.2206285 -0.8990581 3.2677236
-0.18790913 -0.86419916 3.2337437
-0.21174118 -0.8822093 3.2295036
-0.20883104 -0.85678196 3.2421358
-0.2087808 -0.80372679 3.2480769
-0.2375415 -0.84878707 3.2292266
-0.19092867 -0.84145355 3.2536175
-0.20134665 -0.79412484 3.2432399
-0.20690231 -0.8119421 3.2865417
-0.2084062 -0.76392937 3.231082
-0.18001063 -0.76656854 3.2864137
-0.19022162 -0.72280627 3.2642736
-0.21046297 -0.72241408 3.2893174
-0.20558532 -0.69238889 3.3003349
-0.20783806 -0.66053355 3.3152986
-0.22489551 -0.65128595 3.2954094
-0.19094859 -0.63294405 3.3507371
-0.19171426 -0.65208673 3.3534067
-0.23252402 -0.61781871 3.3391638
-0.20348062 -0.60012811 3.3789496
-0.22651027 -0.57536787 3.341418
-0.21910396 -0.56110668 3.3410931
-0.19549876 -0.53026408 3.3762052
-0.21499935 -0.59011257 3.3649154
-0.21516408 -0.51215822 3.3744185
-0.20950183 -0.50985593 3.3537409
-0.19386916 -0.46377617 3.4051156
-0.20541947 -0.41802132 3.3483267
-0.18052982 -0.47417325 3.3713415
-0.21913087 -0.4324269 3.3419549
-0.21420529 -0.41089535 3.3765061
-0.16569614 -0.41598058 3.3779321
-0.22923242 -0.36163697 3.3988218
-0.22289515 -0.38031736 3.4451766
-0.19537196 -0.31304699 3.4649975
-0.23757249 -0.34842291 3.4953165
-0.27634811 -0.31547174 3.4984906
-0.18839386 -0.31989905 3.4984293
-0.23495457 -0.24507648 3.4604781
-0.24255115 -0.2604048 3.5125184
-0.20875823 -0.22250727 3.5233669
-0.2124249 -0.20648512 3.5714643
-0.18398756 -0.20351443 3.5295041
-0.19931811 -0.1552868 3.5775449
-0.19930848 -0.1614126 3.5559165
-0.23776409 -0.15628684 3.5502622
-0.23749162 -0.11627761 3.5938499
-0.22722518 -0.072200254 3.5374708
-0.23684652 -0.095107295 3.6148026
-0.24929199 -0.060685012 3.6282187
-0.1962475 -0.071623378 3.6248248
-0.20410672 -0.04858347 3.6465642
-0.19255009 -0.029187838 3.6436532
-0.21995115 -0.026747579 3.6632609
-0.25631747 0.036813714 3.703357
-0.19887711 0.080650292 3.6941485
-0.21169777 0.079705521 3.6897218
-0.23464175 0.091191232 3.7296546
-0.2509228 0.10726086 3.7176945
-0.20231661 0.13915655 3.7213085
-0.27017322 0.1649254 3.7581272
-0.25048715 0.16618343 3.7514656
-0.24191612 0.20770483 3.7733595
-0.2374443 0.21138547 3.7602751
-0.18637618 0.24823496 3.7877533
-0.23406735 0.27011898 3.806613
-0.21038114 0.29934216 3.8597207
-0.22391316 0.32769269 3.8493826
-0.24836271 0.32475725 3.8146205
-0.22124605 0.35762766 3.856719
-0.2027159 0.36339253 3.83741
-0.24572571 0.40262216 3.8688419
-0.22781846 0.42480129 3.8420863
-0.23887314 0.46575969 3.8706591
-0.22627614 0.48456743 3.9345419
-0.18288164 0.46510255 3.9036126
-0.24544761 0.50928015 3.9003222
-0.24345249 0.53512645 3.9476705
-0.25941753 0.53165644 3.9830401
-0.28353846 0.54619002 3.9669528
-0.22123861 0.61440974 3.945194
-0.25788173 0.62964725 3.980346
-0.25106773 0.6266405 3.9922073
-0.24359012 0.66311032 3.9979212
-0.20766576 0.70363736 3.9838059
-0.23430546 0.71599352 4.0364003
-0.27528188 0.70546132 4.048893
-0.24081887 0.81142426 4.0969625
-0.20528561 0.80128038 4.0579567
-0.24818797 0.809708 4.0582814
-0.26285732 0.86823106 4.0774884
-0.24679545 0.85143256 4.10042
-0.2182149 0.89766908 4.1179395
-0.23582399 0.9140318 4.1268654
-0.2108555 0.94063127 4.1672254
-0.2273026 0.97252572 4.1502581
-0.24194744 1.0111942 4.1642561
-0.25514892 0.99548239 4.1931581
-0.27952674 1.0473239 4.2035604
-0.25759664 1.0415968 4.2128348
-0.25978735 1.0920734 4.2277017
-0.25680858 1.1576525 4.2647276
-0.24372745 1.1480802 4.2661042
-0.26387143 1.152613 4.2000647
-0.26110342 1.1925237 4.183187
-0.29271522 1.1913139 4.2114763
-0.28037468 1.2188929 4.117413
-0.30178967 1.2019866 4.0818629
-0.23331194 1.2581831 4.0677543
-0.2680985 1.2407643 4.0628033
-0.26858947 1.2545472 4.0377245
-0.24618171 1.2339187 3.992357
-0.28008485 1.298436 3.9951701
-0.19727047 1.3013339 3.9874721
-0.25927892 1.3262382 3.9389477
-0.23913917 1.3320187 3.891026
-0.26461357 1.310024 3.9204128
-0.24138206 1.3633633 3.9034131
-0.26291457 1.3769153 3.866132
-0.22722833 1.3622798 3.8346405
-0.23812415 1.3984416 3.8241832
-0.25113434 1.4470417 3.8590491
-0.22600511 1.4035605 3.7311525
-0.25002924 1.4010965 3.7194047
-0.25557587 1.4129784 3.7294555
-0.23342898 1.4596815 3.6846712
-0.24328849 1.4630923 3.720943
-0.21841209 1.5242094 3.7110415
-0.23818004 1.5189446 3.741514
-0.23995347 1.52745 3.7332306
-0.23995568 1.5679021 3.6495848
-0.1971837 1.5746981 3.6595006
-0.19464616 -1.4260656 3.3044336
-0.16208395 -1.2119241 2.970412
-0.17546827 -1.2623149 3.059278
-0.14794829 -1.2303433 3.0423903
-0.17564623 -1.2186486 3.0429847
-0.19568826 -1.2433405 3.0302341
-0.17704649 -1.1846126 3.0971782
-0.18715128 -1.1525339 3.0363896
-0.15479869 -1.106181 3.0665097
-0.16197956 -1.1742208 3.0905664
-0.1939798 -1.1471536 3.0315568
-0.16195557 -1.145023 3.0534277
-0.18306133 -1.1180316 3.0743115
-0.1812612 -1.0896724 3.1266048
-0.21184602 -1.0970744 3.1082683
-0.15794015 -1.0793431 3.082763
-0.16491364 -1.0523399 3.1282678
-0.18063593 -1.0875566 3.1362696
-0.15750399 -1.0426639 3.1645932
-0.15785426 -0.99593627 3.1407495
-0.15911122 -0.99811733 3.1456838
