# .PCD v0.7 - Point Cloud Data file format
VERSION 0.7
FIELDS x y z
SIZE 4 4 4
TYPE F F F
COUNT 1 1 1
WIDTH 1452
HEIGHT 1
VIEWPOINT 0 0 0 1 0 0 0
POINTS 1452
DATA ascii
0.25702408 0.35716334 3.7010314
0.25774214 0.37824497 3.7113709
0.25846422 0.39944467 3.7217684
0.25919035 0.42076355 3.7322245
0.25992054 0.44220248 3.742739
0.26066086 0.46377319 3.7533991
0.26140836 0.48547265 3.7641628
0.26216018 0.50729698 3.7749887
0.26291633 0.52924711 3.7858768
0.26367682 0.55132425 3.7968278
0.26444176 0.57352954 3.8078425
0.26521114 0.595864 3.8189213
0.26598501 0.61832875 3.8300645
0.26676342 0.64092511 3.8412733
0.26754639 0.66365403 3.8525476
0.26833397 0.68651676 3.8638885
0.26912621 0.7095145 3.8752964
0.26992312 0.73264843 3.8867714
0.27072477 0.75591981 3.898315
0.27153119 0.77932978 3.9099271
0.27234244 0.80287969 3.9216089
0.27315855 0.82657069 3.9333606
0.27397957 0.85040414 3.9451828
0.27480555 0.8743813 3.9570765
0.27563652 0.89850348 3.9690421
0.27647251 0.92277193 3.9810801
0.27731362 0.94718808 3.9931915
0.27815986 0.97175324 4.0053768
0.27901125 0.99646878 4.0176368
0.27986786 1.021336 4.0299716
0.28072977 1.0463564 4.0423827
0.28159702 1.0715315 4.0548706
0.28246963 1.0968626 4.0674357
0.28334767 1.1223512 4.0800791
0.28423116 1.1479986 4.0928011
0.28512022 1.1738067 4.1056032
0.28601483 1.1997765 4.118485
0.28419536 1.2142893 4.0922856
0.28363305 1.2339879 4.0841885
0.28036949 1.2416363 4.0371947
0.27849531 1.2550373 4.0102072
0.27664569 1.2682588 3.9835734
0.27482048 1.2813059 3.9572914
0.27459905 1.3016708 3.9541028
0.27515697 1.3257564 3.962137
0.27337721 1.3384833 3.9365091
0.27162036 1.3510468 3.9112113
0.26988596 1.3634498 3.8862364
0.26817355 1.3756955 3.8615787
0.26648277 1.387787 3.8372324
0.26481318 1.3997269 3.8131909
0.2631644 1.4115181 3.789449
0.26221925 1.4268814 3.7758396
0.2630434 1.4518629 3.7877069
0.26387268 1.4770017 3.799648
0.26354215 1.4956872 3.7948885
0.26192951 1.5069453 3.7716675
0.26033619 1.5180643 3.748724
0.25876269 1.5290523 3.7260664
0.25720784 1.5399066 3.7036772
0.25567192 1.5506335 3.6815608
0.2541537 1.5612299 3.6596992
0.24505509 -1.4734325 3.4393494
0.22703502 -1.3478408 3.1864376
0.21148467 -1.2394608 2.9681885
0.20892791 -1.2086084 2.9323044
0.20939009 -1.1953789 2.938791
0.2098543 -1.1820908 2.9453063
0.21032059 -1.1687436 2.9518507
0.21078898 -1.1553371 2.9584243
0.21125942 -1.1418706 2.9650271
0.211732 -1.1283439 2.9716597
0.21220668 -1.1147566 2.9783218
0.21268348 -1.1011082 2.9850137
0.21316244 -1.0873983 2.9917359
0.21364358 -1.0736265 2.9984887
0.21412687 -1.0597925 3.0052717
0.21461236 -1.0458957 3.0120857
0.21510006 -1.0319357 3.0189304
0.21558997 -1.0179121 3.0258064
0.21608214 -1.0038246 3.0327139
0.21657655 -0.98967254 3.0396528
0.21707322 -0.97545558 3.0466237
0.21757218 -0.96117336 3.0536268
0.21807344 -0.94682515 3.0606618
0.21857701 -0.93241078 3.0677295
0.21908292 -0.91792971 3.0748298
0.21959119 -0.90338141 3.0819633
0.22010179 -0.88876545 3.0891297
0.22061479 -0.87408137 3.0963297
0.22113019 -0.85932869 3.1035633
0.22164798 -0.84450686 3.1108305
0.22216822 -0.82961553 3.1181321
0.22269091 -0.81465405 3.125468
0.22321606 -0.79962206 3.1328385
0.22374371 -0.78451908 3.140244
0.22427383 -0.76934439 3.1476843
0.22480649 -0.7540977 3.1551602
0.22534168 -0.73877841 3.1626716
0.22587942 -0.72338599 3.1702187
0.22641973 -0.7079199 3.1778021
0.22696263 -0.69237965 3.1854217
0.22750816 -0.67676473 3.193078
0.2280563 -0.66107458 3.2007713
0.22860709 -0.64530861 3.2085016
0.22916055 -0.6294663 3.2162695
0.22971669 -0.61354709 3.2240748
0.23027554 -0.59755045 3.2319183
0.23083712 -0.58147579 3.2398002
0.23140144 -0.56532252 3.2477205
0.23196854 -0.54909009 3.2556796
0.23253842 -0.53277791 3.2636778
0.2331111 -0.51638532 3.2717154
0.2336866 -0.49991184 3.2797925
0.23426497 -0.48335683 3.28791
0.23484619 -0.46671966 3.2960675
0.2354303 -0.44999969 3.3042655
0.23601733 -0.43319637 3.3125045
0.23660731 -0.41630906 3.3207848
0.23720025 -0.39933711 3.3291066
0.23779614 -0.38227987 3.3374701
0.23839505 -0.36513671 3.3458757
0.23899698 -0.34790701 3.3543239
0.23960195 -0.33059004 3.3628147
0.24021 -0.31318519 3.3713486
0.24082114 -0.29569179 3.379926
0.24143539 -0.27810913 3.3885469
0.24205279 -0.26043656 3.3972123
0.24267337 -0.24267337 3.4059219
0.24329713 -0.22481887 3.4146764
0.24392408 -0.20687233 3.4234757
0.2445543 -0.18883307 3.4323208
0.24518777 -0.17070036 3.4412117
0.24582455 -0.15247345 3.4501488
0.24646464 -0.13415164 3.4591324
0.24710806 -0.11573415 3.4681628
0.24775484 -0.097220257 3.4772406
0.24840504 -0.078609191 3.486366
0.24905865 -0.059900183 3.4955394
0.2497157 -0.041092459 3.5047612
0.25037622 -0.022185236 3.5140316
0.25104028 -0.003177725 3.5233514
0.25170785 0.015930876 3.5327208
0.25237897 0.035141379 3.5421402
0.25305369 0.054454595 3.55161
0.25373203 0.073871352 3.5611303
0.25441399 0.093392484 3.5707018
0.25509965 0.11301884 3.5803251
0.25578904 0.13275127 3.5900004
0.25648212 0.15259063 3.5997279
0.25717899 0.1725378 3.6095085
0.25787964 0.19259366 3.6193423
0.25858414 0.21275911 3.6292298
0.25929746 0.2330395 3.6392412
0.26001838 0.25343564 3.6493592
0.26074332 0.27394551 3.6595337
0.26147231 0.29457009 3.6697652
0.26220539 0.31531027 3.6800539
0.26294258 0.3361671 3.6904006
0.26368394 0.35714155 3.7008057
0.26442951 0.3782346 3.7112694
0.26517928 0.39944726 3.7217925
0.26593331 0.42078057 3.7323754
0.26669165 0.44223556 3.7430189
0.26745436 0.46381325 3.7537231
0.26822141 0.48551467 3.7644887
0.26899287 0.50734097 3.7753162
0.26976877 0.52929318 3.7862062
0.27054921 0.55137241 3.7971594
0.27133411 0.57357973 3.8081758
0.27212363 0.59591633 3.8192568
0.27291775 0.61838323 3.8304019
0.27371651 0.64098167 3.8416126
0.27451995 0.6637128 3.8528888
0.27532813 0.68657774 3.8642318
0.27614108 0.70957774 3.8756416
0.27695885 0.73271394 3.8871188
0.27778149 0.75598758 3.8986645
0.27860901 0.77939987 3.9102788
0.27944148 0.80295211 3.9219625
0.28027895 0.82664549 3.9337163
0.28112143 0.85048127 3.9455407
0.28196901 0.87446088 3.9574366
0.28282171 0.89858544 3.9694042
0.2836796 0.92285639 3.9814446
0.28454271 0.94727504 3.9935582
0.28541103 0.97184265 4.0057454
0.28628474 0.99656081 4.0180078
0.28716376 1.0214306 4.030345
0.28804824 1.0464537 4.0427585
0.28893816 1.0716314 4.0552487
0.28983361 1.0969652 4.0678163
0.29073462 1.1224564 4.080462
0.29164124 1.1481067 4.0931864
0.29255354 1.1739174 4.1059904
0.29347157 1.1998901 4.118875
0.29157266 1.2142709 4.0922236
0.29152331 1.2362065 4.0915313
0.28764734 1.241617 4.0371318
0.28572482 1.2550192 4.0101495
0.28382722 1.2682406 3.9835165
0.28195468 1.2812877 3.9572351
0.28132054 1.2997721 3.9483354
0.28229997 1.3257378 3.9620814
0.28047407 1.3384649 3.936455
0.27867165 1.3510283 3.9111578
0.27689222 1.3634313 3.8861837
0.2751354 1.375677 3.8615267
0.27340075 1.3877684 3.8371811
0.27168787 1.3997083 3.8131404
0.26999626 1.4114995 3.7893989
0.26862645 1.4247403 3.7701738
0.26946953 1.4496778 3.782006
0.27031791 1.4747725 3.7939134
0.2703872 1.4956862 3.7948859
0.26873308 1.5069463 3.7716703
0.26709831 1.518065 3.7487259
0.26548368 1.5290517 3.7260649
0.26388896 1.5399089 3.7036827
0.26231277 1.5506337 3.681561
0.26075518 1.5612304 3.6597004
0.25121576 -1.4731787 3.4387572
0.23274541 -1.3476247 3.1859267
0.21680632 -1.2392757 2.9677451
0.21416922 -1.2083374 2.9316471
0.21464288 -1.1951103 2.9381309
0.21511863 -1.1818246 2.9446433
0.21559653 -1.1684799 2.9511847
0.21607654 -1.1550758 2.9577553
0.21655868 -1.1416118 2.9643552
0.217043 -1.1280876 2.9709847
0.21752946 -1.1145028 2.9776437
0.21801813 -1.100857 2.9843328
0.21850899 -1.0871496 2.9910519
0.21900208 -1.0733806 2.9978015
0.21949738 -1.0595491 3.0045815
0.21999493 -1.0456549 3.0113921
0.22049476 -1.0316976 3.018234
0.22099683 -1.0176767 3.0251067
0.22150123 -1.003592 3.032011
0.22200792 -0.98944271 3.0389469
0.22251692 -0.97522849 3.0459144
0.22302829 -0.960949 3.0529141
0.22354199 -0.94660378 3.0599461
0.22405808 -0.93219227 3.0670104
0.22457655 -0.917714 3.0741074
0.22509742 -0.90316862 3.0812373
0.2256207 -0.88855559 3.0884004
0.22614644 -0.87387455 3.095597
0.22667463 -0.85912484 3.1028271
0.22720529 -0.84430611 3.110091
0.22773845 -0.82941782 3.1173892
0.22827412 -0.8144595 3.1247215
0.22881231 -0.79943061 3.1320884
0.22935303 -0.78433073 3.1394901
0.22989634 -0.76915932 3.1469271
0.23044221 -0.75391591 3.1543994
0.23099068 -0.73859978 3.161907
0.23154175 -0.72321069 3.1694505
0.23209549 -0.707748 3.1770303
0.23265186 -0.69221109 3.1846461
0.23321094 -0.67659962 3.1922989
0.23377268 -0.66091287 3.1999884
0.23433712 -0.64515036 3.2077148
0.23490433 -0.62931162 3.2154789
0.23547426 -0.61339593 3.2232804
0.23604698 -0.59740287 3.2311201
0.2366225 -0.58133179 3.2389979
0.23720083 -0.56518221 3.2469144
0.23778197 -0.54895347 3.2548695
0.23836598 -0.53264499 3.2628636
0.23895289 -0.51625621 3.2708974
0.23954266 -0.49978653 3.2789705
0.24013536 -0.48323536 3.2870836
0.240731 -0.46660206 3.2952371
0.24132963 -0.44988608 3.3034313
0.2419312 -0.43308672 3.311666
0.2425358 -0.41620341 3.319942
0.24314342 -0.39923549 3.3282595
0.2437541 -0.38218236 3.3366187
0.24436785 -0.36504334 3.3450201
0.24498472 -0.34781781 3.3534639
0.24560469 -0.33050507 3.3619504
0.2462278 -0.31310448 3.3704798
0.2468541 -0.2956154 3.3790529
0.24748358 -0.2780371 3.3876696
0.24811628 -0.26036894 3.3963304
0.24875222 -0.24261019 3.4050353
0.24939144 -0.22476019 3.4137852
0.25003394 -0.20681821 3.4225802
0.25067979 -0.18878354 3.4314206
0.25132895 -0.17065546 3.4403067
0.2519815 -0.15243325 3.449239
0.25263745 -0.13411617 3.4582179
0.25329682 -0.11570348 3.4672437
0.25395963 -0.097194418 3.4763165
0.25462592 -0.07858824 3.4854369
0.25529572 -0.059884179 3.4946055
0.25596905 -0.041081451 3.5038226
0.25664592 -0.022179278 3.513088
0.25732642 -0.0031768694 3.5224028
0.25801456 0.015926825 3.5318224
0.25871068 0.035133548 3.5413513
0.25941056 0.054444194 3.5509317
0.26011425 0.073859602 3.560564
0.26082176 0.09338063 3.5702486
0.26153314 0.11300815 3.5799863
0.2622484 0.13274302 3.5897772
0.26296759 0.15258613 3.5996218
0.26369071 0.17253837 3.6095202
0.26441786 0.19260067 3.6194737
0.265149 0.21277389 3.629482
0.26588419 0.23305899 3.6395457
0.2666235 0.25345692 3.6496656
0.26736692 0.27396858 3.6598418
0.26811448 0.29459494 3.6700749
0.26886624 0.31533694 3.6803653
0.26962227 0.33619565 3.6907139
0.27038249 0.35717192 3.7011204
0.27114707 0.3782669 3.7115862
0.27191594 0.39948145 3.722111
0.27268922 0.42081669 3.7326958
0.27346689 0.44227359 3.743341
0.27424902 0.46385327 3.7540472
0.27503562 0.48555672 3.7648146
0.27582675 0.50738502 3.7756441
0.27662247 0.52933925 3.786536
0.27742276 0.55142057 3.7974908
0.27822772 0.57362998 3.8085093
0.27903736 0.59596866 3.819592
0.2798517 0.61843771 3.8307393
0.28067082 0.6410383 3.8419518
0.28149477 0.66377157 3.8532302
0.28232354 0.68663877 3.8645751
0.28315723 0.70964098 3.8759871
0.28399587 0.73277944 3.8874664
0.28483945 0.75605536 3.899014
0.2856881 0.77946997 3.9106305
0.28654179 0.80302453 3.9223163
0.2874006 0.8267203 3.9340723
0.28826457 0.85055846 3.9458988
0.28913379 0.87454045 3.9577968
0.29000825 0.89866751 3.9697666
0.29088798 0.92294085 3.9818089
0.29177311 0.94736201 3.9939249
0.2926636 0.97193217 4.0061145
0.29355958 0.9966529 4.0183792
0.29446101 1.0215253 4.0307183
0.29536805 1.046551 4.0431342
0.29628068 1.0717313 4.0556269
0.29719898 1.0970678 4.0681968
0.29812294 1.1225617 4.0808444
0.29905272 1.1482147 4.0935717
0.29998827 1.1740282 4.1063781
0.30092973 1.2000037 4.1192651
0.29894921 1.2142506 4.092155
0.29906228 1.2368625 4.0937028
0.2949256 1.2416004 4.0370779
0.29295415 1.2550012 4.0100918
0.29100856 1.2682225 3.9834595
0.28908864 1.2812694 3.9571788
0.28802249 1.2978791 3.9425848
0.28890035 1.323235 3.9546015
0.28757071 1.3384464 3.9364007
0.2857227 1.3510098 3.9111042
0.28389829 1.3634127 3.8861308
0.28209704 1.3756585 3.8614748
0.28031853 1.3877498 3.8371296
0.27856231 1.3996897 3.8130896
0.27682796 1.4114809 3.7893491
0.27511498 1.4231257 3.7659011
0.27587658 1.4475006 3.7763262
0.27674386 1.4725506 3.7881978
0.27723271 1.4956875 3.7948892
0.27553654 1.5069468 3.7716715
0.27386022 1.5180647 3.7487252
0.272205 1.5290529 3.7260678
0.27056938 1.5399073 3.7036788
0.26895371 1.5506344 3.6815627
0.26735666 1.5612309 3.6597013
0.25074214 -1.4289281 3.3495688
0.23275112 -1.3095756 3.1092336
0.21716967 -1.2062075 2.901087
0.21956965 -1.203665 2.9331474
0.22005551 -1.1904207 2.9396377
0.22054352 -1.1771178 2.946157
0.22103371 -1.1637558 2.9527051
0.22152607 -1.1503341 2.9592824
0.22202064 -1.1368526 2.9658892
0.22251742 -1.1233108 2.9725254
0.22301643 -1.1097082 2.9791915
0.22351767 -1.0960445 2.9858875
0.22402117 -1.0823191 2.9926136
0.22452696 -1.0685319 2.9993701
0.22503504 -1.0546823 3.0061574
0.22554541 -1.0407698 3.0129752
0.2260581 -1.026794 3.019824
0.22657314 -1.0127547 3.0267043
0.22709052 -0.99865109 3.0336158
0.22761026 -0.98448294 3.0405588
0.22813241 -0.97024989 3.047534
0.22865695 -0.95595133 3.0545411
0.2291839 -0.94158685 3.0615804
0.22971329 -0.92715603 3.0686524
0.23024513 -0.91265839 3.075757
0.23077942 -0.89809346 3.0828946
0.23131624 -0.88346082 3.0900655
0.23185553 -0.86875987 3.0972698
0.23239735 -0.85399026 3.1045077
0.2329417 -0.83915144 3.1117795
0.23348862 -0.82424295 3.1190856
0.23403811 -0.8092643 3.126426
0.23459019 -0.79421496 3.133801
0.23514487 -0.77909446 3.1412108
0.2357022 -0.76390231 3.1486559
0.23626216 -0.74863791 3.1561363
0.2368248 -0.73330086 3.1636522
0.23739012 -0.71789056 3.1712041
0.23795815 -0.70240659 3.1787922
0.23852889 -0.68684822 3.1864166
0.23910238 -0.67121512 3.1940777
0.23967865 -0.65550667 3.2017758
0.2402577 -0.63972229 3.209511
0.24083954 -0.62386143 3.2172837
0.2414242 -0.60792363 3.2250941
0.24201173 -0.59190822 3.2329426
0.24260212 -0.57581466 3.2408295
0.2431954 -0.55964243 3.2487547
0.24379158 -0.54339087 3.2567189
0.24439068 -0.52705944 3.2647221
0.24499275 -0.51064754 3.2727649
0.24559781 -0.4941546 3.2808475
0.24620584 -0.47757998 3.28897
0.24681687 -0.46092308 3.2971327
0.24743098 -0.44418332 3.3053362
0.24804813 -0.42736003 3.3135805
0.24866837 -0.4104526 3.321866
0.24929173 -0.39346045 3.3301933
0.24991821 -0.37638286 3.3385623
0.25054786 -0.35921922 3.3469734
0.25118068 -0.34196886 3.355427
0.25181672 -0.32463118 3.3639235
0.25245595 -0.30720544 3.372463
0.25309846 -0.28969103 3.3810461
0.25374427 -0.27208722 3.389673
0.25439337 -0.25439337 3.398344
0.25504577 -0.23660873 3.4070594
0.25570154 -0.21873266 3.4158196
0.25636071 -0.20076442 3.4246252
0.25702915 -0.18270746 3.4335544
0.25770324 -0.1645575 3.4425597
0.25838092 -0.14631209 3.4516122
0.25906214 -0.12797046 3.4607127
0.259747 -0.10953186 3.4698613
0.26043546 -0.09099552 3.479058
0.26112759 -0.072360657 3.4883039
0.26182339 -0.053626481 3.4975991
0.26252294 -0.034792196 3.5069439
0.26322621 -0.015857002 3.5163388
0.26393327 0.003179919 3.525784
0.26464415 0.022319384 3.5352802
0.26535884 0.041562229 3.5448277
0.26607743 0.060909294 3.5544271
0.2667999 0.080361418 3.5640783
0.26752633 0.099919468 3.5737822
0.26825669 0.11958431 3.583539
0.26899108 0.13935682 3.5933495
0.2697295 0.15923791 3.6032138
0.27047199 0.17922843 3.6131322
0.27121857 0.1993293 3.6231055
0.27196926 0.21954146 3.6331339
0.27272415 0.23986581 3.643218
0.27348322 0.26030332 3.6533582
0.27424651 0.28085488 3.6635549
0.2750141 0.30152151 3.6738088
0.27578601 0.32230413 3.6841204
0.27656227 0.34320378 3.69449
0.27734289 0.36422139 3.7049181
0.27812794 0.38535798 3.7154052
0.27891743 0.40661457 3.7259519
0.27971143 0.42799219 3.7365584
0.28050995 0.44949186 3.7472258
0.28131306 0.47111464 3.7579541
0.28212076 0.4928616 3.768744
0.28293315 0.51473379 3.7795961
0.28375021 0.53673232 3.7905109
0.28457201 0.55885828 3.8014889
0.28539854 0.58111268 3.8125305
0.28622994 0.60349685 3.8236368
0.28706616 0.62601179 3.8348076
0.2879073 0.64865863 3.8460441
0.28875339 0.67143857 3.8573465
0.28960446 0.69435287 3.8687158
0.29046056 0.71740258 3.880152
0.29132172 0.74058896 3.8916562
0.29218805 0.76391333 3.9032288
0.2930595 0.7873767 3.9148703
0.29393619 0.81098056 3.9265816
0.29481813 0.83472604 3.9383631
0.29570538 0.85861439 3.9502156
0.29659799 0.88264704 3.9621396
0.29749599 0.90682513 3.9741356
0.29839945 0.93115008 3.9862046
0.29930842 0.95562327 3.9983473
0.30022293 0.98024595 4.0105639
0.30114308 1.0050197 4.0228558
0.30206886 1.0299456 4.035223
0.30300036 1.0550253 4.0476665
0.30393764 1.0802603 4.0601873
0.30488071 1.1056517 4.0727854
0.30582967 1.1312013 4.0854621
0.30678451 1.1569103 4.0982175
0.3077454 1.1827805 4.1110535
0.30772644 1.204953 4.1108003
0.30572596 1.2192204 4.0840769
0.30666772 1.2451448 4.0966573
0.30152693 1.2460692 4.0279837
0.29951578 1.2594097 4.0011172
0.29753104 1.2725725 3.9746039
0.29557243 1.285562 3.9484396
0.29500356 1.3044133 3.9408402
0.29594323 1.3299618 3.953393
0.29403326 1.3426338 3.9278784
0.29214779 1.3551433 3.9026909
0.29028633 1.3674935 3.8778248
0.28844851 1.3796874 3.8532739
0.28663379 1.3917279 3.8290317
0.28484172 1.4036175 3.8050919
0.28307179 1.4153589 3.7814481
0.28167686 1.4287466 3.762814
0.28255919 1.4536479 3.7746005
0.28344727 1.4787067 3.786464
0.2834962 1.4994558 3.7871177
0.28176492 1.5106674 3.7639904
0.28005475 1.5217432 3.7411447
0.27836499 1.5326843 3.7185719
0.27669597 1.5434967 3.6962759
0.27504635 1.5541776 3.6742396
0.27341732 1.5647376 3.6524777
0.25029248 -1.3869148 3.26489
0.23275658 -1.2733154 3.0361464
0.22128257 -1.1949259 2.886476
0.22497562 -1.1989877 2.9346492
0.22547369 -1.1857263 2.9411461
0.22597398 -1.1724062 2.9476721
0.22647649 -1.1590267 2.954227
0.22698124 -1.1455877 2.9608111
0.22748825 -1.1320885 2.9674246
0.22799753 -1.1185291 2.9740679
0.22850908 -1.1049086 2.9807408
0.22902294 -1.0912269 2.9874437
0.22953913 -1.0774837 2.9941769
0.23005764 -1.0636783 3.0009406
0.2305785 -1.0498103 3.0077348
0.23110171 -1.0358794 3.0145597
0.23162732 -1.0218853 3.0214159
0.23215532 -1.0078272 3.0283034
0.23268574 -0.99370497 3.0352223
0.23321857 -0.979518 3.0421727
0.23375386 -0.96526593 3.0491552
0.23429161 -0.9509483 3.0561697
0.23483184 -0.93656462 3.0632167
0.23537455 -0.92211443 3.070296
0.23591979 -0.9075973 3.0774083
0.23646757 -0.89301282 3.0845537
0.2370179 -0.87836045 3.0917323
0.23757079 -0.86363971 3.0989444
0.23812626 -0.84885013 3.1061902
0.23868434 -0.83399117 3.1134698
0.23924504 -0.81906241 3.1207838
0.23980838 -0.80406338 3.1281321
0.24037437 -0.78899354 3.1355152
0.24094307 -0.77385247 3.1429334
0.24151444 -0.75863951 3.1503866
0.24208853 -0.7433542 3.1578751
0.24266537 -0.72799611 3.1653996
0.24324495 -0.71256459 3.1729598
0.2438273 -0.69705921 3.1805561
0.24441245 -0.68147939 3.188189
0.24500042 -0.66582465 3.1958587
0.24559122 -0.65009445 3.2035654
0.24618489 -0.63428813 3.2113092
0.24678142 -0.61840522 3.2190907
0.24738087 -0.60244519 3.2269099
0.24798322 -0.58640736 3.2347672
0.24858852 -0.57029128 3.2426629
0.24919678 -0.55409634 3.2505972
0.24980801 -0.53782195 3.2585704
0.25042227 -0.52146751 3.2665827
0.25103953 -0.50503248 3.2746348
0.25165987 -0.48851621 3.2827265
0.25228328 -0.47191811 3.2908583
0.25290975 -0.45523757 3.2990305
0.25353938 -0.43847397 3.3072433
0.25417215 -0.42162675 3.3154974
0.25480807 -0.40469515 3.3237925
0.25544718 -0.38767865 3.3321292
0.25609708 -0.37058753 3.3406067
0.25675052 -0.35340953 3.3491304
0.25740731 -0.33614364 3.3576977
0.25806746 -0.31878921 3.3663089
0.25873101 -0.30134553 3.3749647
0.25939795 -0.2838119 3.3836646
0.26006839 -0.26618764 3.3924098
0.26074228 -0.24847206 3.4012003
0.26141968 -0.23066443 3.4100366
0.26210061 -0.21276402 3.4189186
0.26278508 -0.19477013 3.4278471
0.26347315 -0.176682 3.4368224
0.26416484 -0.1584989 3.4458449
0.26486015 -0.14022008 3.4549148
0.26555914 -0.12184478 3.4640326
0.26626182 -0.10337223 3.4731987
0.26696825 -0.084801674 3.4824135
0.26767841 -0.066132315 3.4916773
0.26839238 -0.047363359 3.5009904
0.26911017 -0.028494017 3.5103533
0.26983178 -0.0095234746 3.5197663
0.27055728 0.0095490804 3.5292301
0.27128673 0.028724475 3.5387449
0.27202007 0.048003543 3.5483112
0.27275741 0.067387126 3.5579293
0.27349877 0.086876079 3.5675998
0.27424416 0.10647127 3.577323
0.27499363 0.12617354 3.5870991
0.27574721 0.14598382 3.5969291
0.27650493 0.16590296 3.606813
0.27726683 0.18593186 3.6167512
0.27803293 0.20607147 3.6267445
0.27880326 0.22632265 3.6367931
0.27957788 0.24668637 3.6468976
0.28035682 0.26716357 3.6570582
0.28114012 0.28775519 3.6672759
0.28192779 0.3084622 3.6775506
0.28271991 0.32928556 3.6878831
0.2835165 0.35022625 3.6982739
0.28431755 0.37128529 3.7087233
0.2851232 0.39246368 3.7192321
0.28593338 0.41376242 3.7298005
0.2867482 0.43518257 3.7404292
0.28756768 0.45672512 3.7511187
0.28839183 0.47839114 3.7618692
0.28922075 0.50018173 3.7726817
0.29005441 0.52209795 3.7835565
0.29089293 0.54414088 3.7944942
0.29173627 0.5663116 3.8054953
0.29258454 0.58861125 3.8165603
0.29343778 0.61104101 3.8276899
0.294296 0.63360196 3.8388848
0.29515919 0.65629518 3.8501449
0.29602754 0.67912197 3.8614717
0.29690099 0.70208353 3.8728652
0.29777959 0.72518086 3.884326
0.29866344 0.74841541 3.8958549
0.29955253 0.77178824 3.9074526
0.30044693 0.79530072 3.9191196
0.30134669 0.81895393 3.9308562
0.30225185 0.8427493 3.9426634
0.30316246 0.86668795 3.9545417
0.30407858 0.89077139 3.9664919
0.30500025 0.91500074 3.9785144
0.30592754 0.93937755 3.9906104
0.30686051 0.96390295 4.00278
0.30779913 0.98857838 4.0150237
0.30874354 1.0134052 4.0273428
0.30969375 1.0383849 4.0397377
0.31064981 1.0635188 4.0522089
0.31161183 1.0888084 4.0647578
0.31257981 1.1142551 4.0773845
0.31355378 1.1398603 4.0900893
0.31453392 1.1656257 4.1028743
0.31552017 1.1915526 4.1157393
0.31441876 1.2095875 4.1013722
0.31306377 1.2264733 4.0836973
0.31017682 1.2370582 4.0460391
0.30809873 1.2505183 4.0189319
0.30604813 1.2637987 3.9921832
0.30402461 1.2769033 3.9657876
0.30202764 1.2898358 3.939739
0.3019782 1.3109407 3.9390941
0.3024154 1.3341856 3.9447968
0.30046785 1.3468029 3.9193926
0.29854527 1.3592591 3.8943138
0.29664716 1.3715569 3.8695543
0.29477304 1.3836993 3.8451076
0.29292229 1.3956887 3.820966
0.29109454 1.4075277 3.7971241
0.28928977 1.4192216 3.7735822
0.28833291 1.4348803 3.7611008
0.28923568 1.4597894 3.7728765
0.29014459 1.4848577 3.7847328
0.2897338 1.5032072 3.7793744
0.28796843 1.5143751 3.7563462
0.28622362 1.5254035 3.7335863
0.28450027 1.5363015 3.7111065
0.2827982 1.5470724 3.688904
0.28111601 1.5577134 3.6669612
0.26968503 -1.4724183 3.4369819
0.24986564 -1.3469769 3.1843951
0.23276177 -1.2387207 2.9664161
0.22987905 -1.2075256 2.9296775
0.23038712 -1.1943057 2.9361525
0.23089744 -1.1810272 2.9426563
0.23141001 -1.1676896 2.9491887
0.23192489 -1.1542928 2.9557505
0.23244204 -1.1408362 2.9623413
0.23296152 -1.1273196 2.9689617
0.23348333 -1.1137424 2.9756119
0.23400746 -1.1001041 2.9822917
0.23453397 -1.0864044 2.9890018
0.23506284 -1.072643 2.9957418
0.23559409 -1.0588194 3.0025125
0.23612776 -1.0449332 3.0093138
0.23666388 -1.030984 3.0161462
0.23720242 -1.0169712 3.0230095
0.23774341 -1.0028946 3.0299041
0.23828688 -0.98875362 3.0368304
0.23883283 -0.97454774 3.0437882
0.2393813 -0.96027672 3.0507782
0.23993227 -0.9459399 3.0578001
0.24048582 -0.93153703 3.0648546
0.2410419 -0.91706747 3.0719416
0.24160057 -0.90253085 3.0790615
0.24216184 -0.88792676 3.0862145
0.24272573 -0.8732546 3.093401
0.24329223 -0.85851395 3.1006207
0.24386139 -0.84370434 3.1078744
0.24443321 -0.82882524 3.1151619
0.24500774 -0.81387627 3.122484
0.24558496 -0.79885685 3.1298404
0.24616492 -0.78376645 3.1372316
0.24674761 -0.76860464 3.1446576
0.24733306 -0.75337082 3.1521189
0.24792133 -0.73806465 3.159616
0.24851237 -0.7226854 3.1671486
0.24910626 -0.70723271 3.1747172
0.24970298 -0.69170594 3.182322
0.25030258 -0.67610466 3.1899636
0.25090504 -0.66042817 3.1976416
0.25151041 -0.64467609 3.2053568
0.25211874 -0.6288479 3.2131095
0.25272998 -0.61294281 3.2208996
0.25334421 -0.59696048 3.2287276
0.25396144 -0.58090031 3.2365937
0.2545833 -0.56476527 3.244519
0.25521412 -0.54856372 3.2525587
0.25584811 -0.53228176 3.2606385
0.25648528 -0.51591867 3.2687585
0.25712559 -0.49947387 3.2769191
0.25776911 -0.48294675 3.2851205
0.25841588 -0.4663367 3.2933631
0.25906587 -0.44964308 3.3016469
0.25971916 -0.43286529 3.3099728
0.26037577 -0.41600266 3.3183408
0.26103568 -0.39905456 3.326751
0.26169896 -0.38202032 3.3352041
0.26236561 -0.36489931 3.3437002
0.26303568 -0.34769085 3.3522398
0.26370916 -0.33039424 3.3608229
0.26438612 -0.31300884 3.3694503
0.26506656 -0.29553398 3.3781221
0.2657505 -0.27796891 3.3868384
0.26643798 -0.26031297 3.3956001
0.267129 -0.24256542 3.404407
0.26782367 -0.2247256 3.41326
0.26852193 -0.20679276 3.422159
0.26922384 -0.18876615 3.4311044
0.26992944 -0.17064504 3.4400969
0.27063873 -0.15242872 3.4491365
0.27135175 -0.1341164 3.4582236
0.27206859 -0.11570733 3.4673591
0.27278918 -0.097200744 3.4765427
0.27351362 -0.078595869 3.4857752
0.27424192 -0.059891913 3.4950569
0.27497411 -0.041088082 3.5043881
0.2757102 -0.022183578 3.5137691
0.27645025 -0.003177589 3.5232008
0.27719429 0.015930707 3.5326831
0.27794233 0.035142135 3.5422165
0.27869442 0.054457534 3.5518017
0.2794506 0.073877744 3.5614386
0.28021088 0.09340363 3.5711281
0.28097534 0.11303605 3.5808704
0.28174397 0.13277589 3.5906663
0.28251681 0.15262403 3.6005156
0.2832939 0.17258134 3.6104193
0.28407529 0.19264875 3.6203775
0.284861 0.21282718 3.6303909
0.28565103 0.23311751 3.6404595
0.2864455 0.25352073 3.6505845
0.28724438 0.27403775 3.6607659
0.28804773 0.29466954 3.6710043
0.28885561 0.31541702 3.6812999
0.28966799 0.33628124 3.6916535
0.29048499 0.35726315 3.7020657
0.29130661 0.37836376 3.7125366
0.29213285 0.39958403 3.7230668
0.29296383 0.42092505 3.7336571
0.29379955 0.44238782 3.7443078
0.29464003 0.4639734 3.7550194
0.29548538 0.48568285 3.7657926
0.29633555 0.50751722 3.7766275
0.29719064 0.52947754 3.7875252
0.29805067 0.55156499 3.7984858
0.29891571 0.57378072 3.8095102
0.29978576 0.59612572 3.8205986
0.30066091 0.61860114 3.8317518
0.30154118 0.64120823 3.8429704
0.30242661 0.66394806 3.8542547
0.30331725 0.68682188 3.8656056
0.30421317 0.70983076 3.8770235
0.30511439 0.73297596 3.888509
0.30602098 0.75625873 3.9000628
0.30693296 0.77968025 3.9116855
0.30785039 0.80324185 3.9233778
0.30877331 0.82694465 3.9351399
0.3097018 0.85079002 3.9469728
0.31063586 0.87477916 3.9588771
0.31157562 0.89891356 3.9708536
0.31252104 0.92319435 3.9829025
0.31347224 0.94762295 3.9950249
0.31442922 0.97220069 4.0072212
0.31539211 0.99692911 4.0194926
0.31636086 1.0218092 4.0318389
0.31734818 1.0468842 4.0444217
0.31834435 1.0721253 4.0571175
0.31934685 1.0975254 4.0698934
0.32035562 1.1230859 4.0827498
0.32137087 1.1488085 4.0956883
0.32239252 1.1746945 4.1087089
0.32328501 1.2002422 4.1200833
0.3210803 1.2142001 4.0919852
0.31989351 1.2317739 4.0768604
0.31675851 1.2415477 4.0369067
0.31464085 1.2549468 4.0099182
0.31255135 1.2681681 3.9832888
0.31048939 1.2812148 3.9570103
0.30845448 1.2940906 3.9310765
0.30894625 1.3174604 3.9373438
0.3088595 1.3383911 3.9362381
0.30687475 1.3509544 3.9109437
0.3049154 1.3633574 3.885973
0.30298093 1.375603 3.8613191
0.30107057 1.3876932 3.836973
0.29918411 1.3996315 3.8129311
0.29732147 1.4114226 3.7891927
0.29548192 1.4230682 3.7657487
0.29498291 1.4410084 3.7593889
0.29590636 1.4659269 3.7711577
0.29683581 1.4910029 3.7830033
0.2959466 1.5069464 3.7716706
0.29414618 1.5180647 3.7487254
0.29236799 1.5290509 3.7260633
0.29061177 1.5399083 3.7036812
0.28887615 1.550634 3.6815617
0.28716108 1.5612322 3.6597044
0.26873288 -1.4282095 3.3478844
0.24945942 -1.3089613 3.107775
0.23276675 -1.2056794 2.899817
0.2352839 -1.2028558 2.9311757
0.23580417 -1.1896188 2.9376574
0.23632674 -1.1763231 2.9441676
0.23685165 -1.1629683 2.950707
0.2373789 -1.149554 2.9572754
0.2379085 -1.1360799 2.9638731
0.23844047 -1.1225456 2.9705005
0.23897481 -1.1089505 2.9771574
0.23951156 -1.0952945 2.9838443
0.24005073 -1.0815769 2.9905612
0.24059233 -1.0677974 2.9973085
0.24113639 -1.0539557 3.0040863
0.2416829 -1.0400511 3.0108948
0.24223191 -1.0260835 3.0177343
0.2427834 -1.0120522 3.0246048
0.24333741 -0.99795681 3.0315068
0.24389395 -0.98379695 3.0384402
0.24445304 -0.96957219 3.0454054
0.24501471 -0.95528209 3.0524027
0.24557897 -0.94092619 3.0594323
0.24614583 -0.92650402 3.0664942
0.24671532 -0.91201502 3.0735888
0.24728745 -0.89745897 3.0807166
0.24786223 -0.88283515 3.0878773
0.2484397 -0.86814326 3.0950713
0.24901986 -0.85338271 3.102299
0.24960274 -0.83855301 3.1095605
0.25018835 -0.82365382 3.1168561
0.25077671 -0.80868441 3.1241858
0.25136787 -0.79364455 3.1315503
0.2519618 -0.77853364 3.1389496
0.25255856 -0.76335108 3.146384
0.25315812 -0.74809647 3.1538534
0.25376388 -0.73277885 3.1614001
0.25437656 -0.71739906 3.1690328
0.25499219 -0.70194483 3.1767025
0.25561079 -0.68641555 3.1844091
0.25623244 -0.67081082 3.1921537
0.2568571 -0.65512991 3.1999357
0.25748482 -0.63937241 3.2077558
0.25811562 -0.62353772 3.2156143
0.25874951 -0.60762525 3.2235112
0.25938651 -0.59163445 3.2314472
0.26002669 -0.57556468 3.2394223
0.26067001 -0.5594154 3.2474368
0.26131654 -0.54318601 3.2554913
0.26196626 -0.52687597 3.2635856
0.2626192 -0.51048452 3.2717202
0.26327544 -0.49401122 3.2798955
0.26393497 -0.47745541 3.2881119
0.2645978 -0.46081641 3.2963696
0.26526397 -0.44409361 3.3046687
0.26593351 -0.42728642 3.3130097
0.26660642 -0.41039416 3.321393
0.26728278 -0.39341623 3.329819
0.26796255 -0.37635189 3.3382876
0.26864579 -0.35920054 3.3467994
0.26933253 -0.3419615 3.3553548
0.27002278 -0.32463413 3.3639541
0.27071658 -0.30721769 3.3725975
0.27141395 -0.28971153 3.3812854
0.27211493 -0.27211493 3.3900182
0.27281955 -0.25442722 3.3987963
0.2735278 -0.23664767 3.40762
0.27423975 -0.21877554 3.4164894
0.27495542 -0.20081015 3.4254053
0.27567485 -0.18275073 3.4343677
0.27639806 -0.16459659 3.4433775
0.27712503 -0.14634693 3.4524343
0.27785587 -0.12800102 3.461539
0.27859056 -0.10955808 3.4706917
0.27932915 -0.091017365 3.4798932
0.28007168 -0.072378077 3.4891436
0.28081813 -0.053639419 3.4984431
0.28156862 -0.034800615 3.5077925
0.28232309 -0.015860848 3.5171919
0.28308165 0.0031806924 3.5266418
0.28384426 0.022324828 3.5361426
0.28461102 0.041572396 3.5456948
0.28538191 0.060924228 3.5552988
0.28615698 0.080381177 3.5649548
0.28693631 0.099944107 3.5746634
0.28771988 0.11961388 3.5844252
0.28850773 0.13939136 3.5942402
0.28929991 0.15927748 3.6041093
0.29009646 0.1792731 3.6140327
0.2908974 0.19937912 3.624011
0.29170278 0.21959646 3.6340442
0.29251263 0.2399261 3.6441336
0.29332697 0.26036888 3.6542788
0.29414588 0.28092584 3.6644807
0.29496938 0.30159789 3.6747398
0.2957975 0.32238603 3.6850564
0.29663026 0.34329122 3.6954312
0.29746777 0.36431444 3.7058647
0.29830998 0.38545674 3.7163572
0.29915699 0.40671906 3.7269092
0.30000883 0.42810249 3.7375214
0.3008655 0.449608 3.748194
0.30172712 0.47123671 3.7589278
0.30259365 0.49298969 3.7697234
0.30346519 0.5148679 3.780581
0.30434179 0.53687257 3.7915015
0.30522344 0.55900472 3.8024852
0.3061102 0.58126545 3.8135326
0.30700216 0.60365593 3.8246446
0.30789933 0.62617731 3.8358216
0.30880174 0.64883059 3.8470638
0.30970946 0.67161715 3.8583722
0.31062254 0.694538 3.8697474
0.31154099 0.71759444 3.8811896
0.31246492 0.74078763 3.8927
0.31339434 0.76411879 3.9042788
0.31432933 0.78758919 3.9159267
0.31526989 0.81120002 3.9276443
0.31622988 0.83498901 3.9396038
0.31719676 0.85892606 3.9516494
0.31816956 0.88300997 3.9637687
0.31914836 0.907242 3.9759626
0.32013321 0.93162364 3.9882319
0.32112417 0.95615619 4.000577
0.32212123 0.98084104 4.0129986
0.32312456 1.0056797 4.0254979
0.32413411 1.0306736 4.038075
0.32515001 1.0558242 4.0507312
0.32617229 1.0811329 4.063467
0.32720104 1.1066012 4.076283
0.32823628 1.1322308 4.08918
0.32927814 1.1580231 4.1021595
0.33032656 1.1839795 4.115221
0.32995668 1.204898 4.1106129
0.32771125 1.2187912 4.0826392
0.32549608 1.2324964 4.0550427
0.32331082 1.2460182 4.0278187
0.32115355 1.2593549 4.0009432
0.31902564 1.2725179 3.9744334
0.31692567 1.2855074 3.948272
0.31495357 1.2987411 3.9237037
0.31590807 1.3239744 3.935595
0.31527567 1.3425784 3.9277163
0.31325412 1.355088 3.9025316
0.31125826 1.3674381 3.8776674
0.30928743 1.3796304 3.8531146
0.3073414 1.3916694 3.8288708
0.30541992 1.403559 3.8049331
0.30352247 1.4153014 3.7812946
0.30164844 1.4268988 3.7579479
0.30162689 1.4471313 3.7576795
0.30257094 1.4720587 3.7694404
0.30352092 1.4971426 3.7812753
0.30213359 1.5106679 3.7639918
0.30029961 1.5217431 3.7411442
0.2984879 1.5326852 3.7185738
0.29669797 1.5434963 3.6962748
0.29492947 1.554179 3.6742427
0.29318213 1.5647361 3.6524742
0.26782885 -1.386235 3.2632897
0.2490723 -1.2727321 3.0347555
0.23617586 -1.1912607 2.8776224
0.24069425 -1.1981813 2.9326754
0.24122676 -1.1849271 2.9391637
0.24176165 -1.1716142 2.9456809
0.2422989 -1.158242 2.9522269
0.24283855 -1.1448103 2.958802
0.24338062 -1.1313187 2.9654067
0.24392509 -1.1177666 2.9720407
0.24447203 -1.1041539 2.9787047
0.24502139 -1.0904799 2.9853983
0.24557327 -1.0767443 2.9921224
0.24612761 -1.0629467 2.9988766
0.24668446 -1.0490867 3.0056615
0.24724385 -1.0351638 3.0124772
0.24780577 -1.0211776 3.0193238
0.24837026 -1.0071278 3.0262017
0.24893732 -0.99301368 3.0331109
0.24950698 -0.97883505 3.0400517
0.25007924 -0.96459144 3.0470245
0.25065416 -0.95028228 3.0540292
0.2512317 -0.93590713 3.0610662
0.25181192 -0.92146564 3.0681357
0.25239483 -0.90695727 3.075238
0.25298542 -0.89239907 3.0824337
0.25358093 -0.87778008 3.0896895
0.25417921 -0.86309206 3.0969794
0.25478035 -0.84833461 3.1043038
0.25538433 -0.83350712 3.1116629
0.25599119 -0.81860924 3.1190569
0.25660095 -0.80364031 3.1264863
0.25721362 -0.78859997 3.1339512
0.25782922 -0.77348763 3.1414518
0.25844777 -0.75830275 3.1489882
0.25906929 -0.74304485 3.1565611
0.2596938 -0.72771341 3.1641705
0.26032135 -0.71230787 3.1718166
0.26095194 -0.69682765 3.1794996
0.26158556 -0.68127233 3.1872201
0.26222229 -0.66564119 3.194978
0.26286215 -0.64993387 3.202774
0.2635051 -0.63414961 3.210608
0.26415122 -0.61828798 3.2184803
0.26480049 -0.60234839 3.2263916
0.26545298 -0.58633024 3.2343416
0.26610869 -0.57023293 3.242331
0.26676768 -0.55405593 3.25036
0.26742989 -0.53779858 3.2584288
0.26809543 -0.52146035 3.2665379
0.26876429 -0.50504059 3.2746873
0.26943648 -0.48853868 3.2828774
0.27011207 -0.47195405 3.2911088
0.27079102 -0.455286 3.2993815
0.27147341 -0.43853396 3.3076959
0.27215925 -0.42169729 3.3160522
0.27284855 -0.40477532 3.324451
0.27354136 -0.38776743 3.3328924
0.27423772 -0.37067294 3.3413768
0.2749376 -0.35349119 3.3499043
0.27564108 -0.33622155 3.3584757
0.27634814 -0.31886324 3.3670907
0.27705887 -0.30141568 3.3757503
0.27777323 -0.28387815 3.3844545
0.27849132 -0.26624995 3.3932037
0.27921313 -0.24853036 3.4019983
0.27993867 -0.23071869 3.4108386
0.28066799 -0.21281418 3.4197247
0.28140113 -0.19481617 3.4286575
0.28213811 -0.17672387 3.4376371
0.28287894 -0.15853655 3.4466636
0.28362373 -0.14025348 3.4557381
0.28437239 -0.12187389 3.4648602
0.28512505 -0.103397 3.4740307
0.2858817 -0.084822036 3.4832497
0.28664237 -0.066148236 3.4925179
0.28740707 -0.047374792 3.5018353
0.28817588 -0.028500913 3.5112028
0.28894883 -0.0095257862 3.5206206
0.28972593 0.009551404 3.5300889
0.29050723 0.028731482 3.5396082
0.29129273 0.048015285 3.5491791
0.29208249 0.067403652 3.5588019
0.29287657 0.086897448 3.5684772
0.29367498 0.10649753 3.5782051
0.29447773 0.12620474 3.587986
0.2952849 0.14602001 3.5978208
0.2960965 0.16594419 3.6077094
0.29691258 0.1859782 3.6176527
0.29773316 0.20612296 3.627651
0.29855829 0.22637936 3.6377044
0.29938802 0.24674837 3.647814
0.30022234 0.2672309 3.6579797
0.30106139 0.28782791 3.6682026
0.3019051 0.30854037 3.6784825
0.30275354 0.32936925 3.6888204
0.30360675 0.35031548 3.6992161
0.30446482 0.37138018 3.709671
0.30532774 0.39256424 3.720185
0.30619559 0.41386876 3.7307589
0.30706835 0.43529472 3.7413931
0.30794612 0.45684314 3.7520878
0.30882892 0.47851512 3.7628441
0.30971679 0.50031173 3.7736621
0.31060979 0.52223402 3.7845426
0.31150794 0.54428309 3.795486
0.31241131 0.56646007 3.8064928
0.31331992 0.58876598 3.8175635
0.31423441 0.61120319 3.828706
0.31516808 0.63379955 3.8400819
0.3161073 0.65653056 3.8515258
0.31705213 0.67939746 3.8630378
0.31800264 0.70240146 3.874619
0.31895888 0.7255438 3.8862698
0.31992087 0.74882573 3.8979909
0.32088864 0.77224851 3.9097826
0.32186234 0.79581344 3.9216464
0.32284191 0.81952178 3.9335818
0.32382751 0.84337491 3.9455905
0.32481915 0.86737418 3.9576728
0.32581684 0.8915208 3.9698291
0.3268207 0.91581631 3.9820604
0.32783079 0.9402619 3.9943674
0.32884711 0.96485913 4.0067506
0.32986978 0.9896093 4.0192108
0.33089879 1.0145139 4.0317488
0.33193427 1.0395744 4.0443654
0.33297622 1.0647922 4.0570607
0.33402479 1.0901688 4.0698366
0.33507994 1.1157057 4.0826926
0.33614179 1.1414045 4.0956306
0.33721039 1.1672667 4.1086507
0.3382858 1.1932938 4.1217537
0.33659771 1.2095325 4.1011858
0.33431166 1.2233602 4.0733318
0.33205771 1.2370062 4.0458694
0.32983315 1.2504662 4.0187645
0.3276372 1.2637435 3.9920087
0.32547113 1.2768482 3.9656167
0.32333347 1.2897809 3.9395711
0.32188898 1.3052422 3.9219711
0.32286379 1.3304826 3.9338481
0.32166418 1.3467478 3.9192319
0.31960595 1.3592033 3.8941541
0.3175737 1.3714997 3.8693926
0.31556714 1.3836405 3.8449442
0.31358594 1.3956298 3.8208048
0.31162968 1.4074702 3.7969692
0.30969766 1.4191641 3.7734292
0.30778947 1.4307137 3.7501793
0.30826512 1.4532498 3.7559745
0.30922943 1.4781847 3.7677243
0.31018558 1.5032071 3.7793741
0.30829531 1.5143737 3.7563424
0.30642742 1.5254024 3.7335837
0.30458328 1.5363046 3.7111142
0.30276051 1.5470729 3.6889052
0.30095917 1.5577118 3.6669574
0.28813526 -1.4716586 3.4352086
0.26696941 -1.3463296 3.1828649
0.24870294 -1.2381662 2.9650884
0.24556778 -1.2067147 2.9277103
0.24611016 -1.1935019 2.9341767
0.24665494 -1.1802306 2.9406717
0.24720214 -1.1669004 2.9471955
0.24775177 -1.1535109 2.9537482
0.24830385 -1.1400617 2.9603302
0.24885839 -1.1265525 2.9669416
0.24941541 -1.1129827 2.9735825
0.24997495 -1.0993522 2.9802535
0.25053698 -1.0856602 2.9869542
0.25110155 -1.0719067 2.9936852
0.25166869 -1.0580909 3.0004466
0.25224489 -1.0442395 3.0073161
0.25282413 -1.0303262 3.0142219
0.25340605 -1.0163491 3.0211599
0.25399065 -1.0023072 3.0281296
0.25457796 -0.98820043 3.0351315
0.25516799 -0.97402835 3.042166
0.25576076 -0.95979041 3.0492332
0.2563563 -0.94548613 3.0563333
0.25695461 -0.93111509 3.0634665
0.25755572 -0.91667688 3.0706332
0.25815964 -0.90217084 3.0778332
0.25876641 -0.88759667 3.0850673
0.25937605 -0.87295383 3.0923355
0.25998855 -0.8582418 3.0996377
0.26060396 -0.84346014 3.1069748
0.2612223 -0.82860839 3.1143467
0.26184356 -0.81368595 3.1217537
0.26246777 -0.79869229 3.1291957
0.26309502 -0.78362709 3.1366737
0.26372522 -0.76848966 3.1441872
0.26435846 -0.75327951 3.1517367
0.26499474 -0.73799616 3.1593227
0.26563412 -0.72263908 3.1669455
0.26627657 -0.70720768 3.1746049
0.26692215 -0.69170147 3.1823015
0.26757085 -0.67611992 3.1900356
0.26822272 -0.66046244 3.1978073
0.26887777 -0.64472842 3.205617
0.26953605 -0.62891746 3.213465
0.27019754 -0.61302882 3.2213514
0.27086228 -0.59706205 3.2292767
0.2715303 -0.58101648 3.237241
0.27220163 -0.56489158 3.2452447
0.27287629 -0.54868674 3.253288
0.2735543 -0.53240138 3.2613714
0.2742357 -0.5160349 3.269495
0.27492049 -0.4995867 3.2776594
0.27560869 -0.4830561 3.2858644
0.27630037 -0.46644258 3.2941108
0.27699554 -0.44974542 3.3023984
0.2776942 -0.43296406 3.3107281
0.27839637 -0.41609782 3.3190997
0.27910215 -0.39914608 3.3275139
0.27981147 -0.38210815 3.3359709
0.28052443 -0.36498338 3.3444707
0.28124103 -0.34777117 3.3530142
0.28196129 -0.33047077 3.3616014
0.28268528 -0.31308153 3.3702328
0.28341296 -0.29560277 3.3789084
0.28414443 -0.27803379 3.387629
0.28487962 -0.26037386 3.3963945
0.28561869 -0.24262233 3.4052057
0.28636158 -0.22477844 3.4140625
0.28710836 -0.20684151 3.4229658
0.28785905 -0.18881077 3.4319155
0.28861365 -0.1706855 3.4409122
0.28937221 -0.15246493 3.4499559
0.29013479 -0.13414834 3.4590476
0.29090142 -0.11573497 3.4681873
0.29167208 -0.097224027 3.4773753
0.29244685 -0.078614742 3.4866123
0.29322574 -0.05990633 3.4958982
0.29400879 -0.041098002 3.505234
0.29479602 -0.022188947 3.5146196
0.29558748 -0.0031783602 3.5240557
0.2963832 0.015934581 3.5335424
0.29718325 0.035150707 3.5430806
0.29798761 0.054470856 3.5526705
0.29879633 0.073895864 3.5623121
0.29960945 0.093426608 3.5720065
0.30042702 0.11306393 3.5817535
0.30124906 0.13280872 3.5915539
0.30207559 0.15266186 3.6014082
0.30290669 0.17262425 3.6113167
0.30374238 0.19269678 3.62128
0.30458266 0.21288036 3.6312981
0.30542764 0.23317595 3.6413722
0.3062773 0.25358444 3.6515019
0.30713174 0.2741068 3.6616886
0.30799091 0.29474398 3.671932
0.30885491 0.31549695 3.6822326
0.30972379 0.33636671 3.6925917
0.31059757 0.35735419 3.7030089
0.31147629 0.37846044 3.7134852
0.31235999 0.39968643 3.724021
0.31325081 0.42103603 3.7346416
0.31415862 0.44252449 3.7454646
0.3150717 0.46413788 3.7563505
0.31599009 0.48587725 3.7672999
0.31691387 0.50774372 3.7783132
0.31784305 0.52973843 3.789391
0.31877771 0.55186248 3.8005342
0.31971785 0.574117 3.811743
0.3206636 0.59650326 3.8230183
0.32161495 0.61902231 3.8343604
0.32257196 0.64167541 3.8457701
0.32353464 0.66446364 3.8572476
0.32450312 0.68738836 3.868794
0.32547742 0.71045071 3.8804097
0.32645759 0.733652 3.8920953
0.32744366 0.75699341 3.9038515
0.32843572 0.78047627 3.915679
0.3294338 0.80410182 3.9275784
0.33043796 0.82787144 3.9395504
0.33144829 0.85178643 3.9515955
0.33246478 0.87584811 3.9637146
0.33348757 0.90005785 3.9759083
0.33451664 0.9244169 3.9881771
0.33555207 0.94892681 4.0005217
0.33659396 0.97358894 4.0129433
0.33764231 0.99840468 4.0254421
0.33869725 1.0233755 4.0380192
0.33975878 1.0485029 4.0506749
0.34082699 1.0737882 4.0634103
0.3419019 1.099233 4.0762258
0.34298366 1.1248389 4.0891228
0.34407225 1.1506072 4.1021013
0.34516779 1.1765397 4.1151624
0.34556475 1.2001872 4.119895
0.3432084 1.2141459 4.0918021
0.34088337 1.2279133 4.0640826
0.33858961 1.2414953 4.036736
0.33632565 1.2548925 4.0097446
0.33409193 1.2681124 3.9831138
0.33188808 1.2811593 3.9568388
0.32971308 1.2940352 3.9309082
0.3288179 1.311736 3.9202356
0.32981351 1.3369859 3.9321053
0.32802489 1.3508983 3.9107814
0.3259303 1.3632998 3.8858089
0.32386222 1.375544 3.8611531
0.32182035 1.387634 3.8368094
0.31980437 1.3995739 3.8127744
0.31781349 1.4113653 3.7890387
0.31584725 1.4230107 3.7655966
0.31391847 1.4345738 3.7426016
0.31489697 1.4593612 3.7542672
0.31588155 1.4843036 3.7660058
0.31635663 1.5069461 3.7716696
0.31443277 1.5180678 3.748733
0.31253162 1.5290526 3.7260673
0.31065366 1.5399069 3.7036777
0.30879828 1.5506322 3.6815577
0.3069652 1.5612316 3.6597033
0.28670552 -1.4274918 3.3462019
0.26615202 -1.3083473 3.1063175
0.24835017 -1.2051519 2.8985481
0.25097823 -1.2020537 2.9292209
0.25153959 -1.1888555 2.9357724
0.25210342 -1.1755981 2.9423532
0.25266984 -1.1622813 2.9489639
0.25323877 -1.1489043 2.9556041
0.25381029 -1.1354671 2.9622743
0.2543844 -1.121969 2.9689748
0.2549611 -1.1084098 2.9757056
0.2555404 -1.0947889 2.9824669
0.25612235 -1.0811059 2.989259
0.25670698 -1.0673606 2.9960823
0.25729427 -1.0535523 3.0029366
0.25788426 -1.0396807 3.0098226
0.25847697 -1.0257454 3.0167401
0.25907236 -1.0117458 3.0236893
0.25967056 -0.99768162 3.0306709
0.26027152 -0.98355234 3.0376847
0.26087523 -0.96935743 3.0447309
0.26148179 -0.9550966 3.05181
0.26209116 -0.94076926 3.0589221
0.26270336 -0.92637497 3.0660672
0.26331845 -0.91191334 3.073246
0.2639364 -0.89738375 3.0804584
0.26455727 -0.88278592 3.0877049
0.26518109 -0.86811918 3.0949855
0.26580784 -0.85338306 3.1023004
0.26643756 -0.83857715 3.1096499
0.26707026 -0.8237009 3.1170344
0.26770601 -0.80875391 3.1244543
0.26834476 -0.79373556 3.1319094
0.26898658 -0.77864534 3.1394
0.26963145 -0.76348275 3.1469266
0.27027944 -0.74824733 3.1544895
0.27093056 -0.73293847 3.1620889
0.27158484 -0.7175557 3.1697249
0.27224225 -0.70209843 3.1773977
0.27290288 -0.68656617 3.1851079
0.27356669 -0.67095828 3.1928556
0.27423376 -0.65527439 3.2006412
0.27490407 -0.63951373 3.2084646
0.27557772 -0.62367588 3.2163267
0.27625462 -0.60776019 3.2242272
0.27693489 -0.59176612 3.2321665
0.2776185 -0.57569313 3.2401452
0.2783055 -0.55954051 3.2481632
0.27899593 -0.54330784 3.2562213
0.27968976 -0.52699441 3.2643192
0.28038707 -0.51059961 3.2724576
0.28108785 -0.49412283 3.2806365
0.28179213 -0.4775635 3.2888565
0.28249997 -0.46092102 3.2971179
0.28321138 -0.4441947 3.3054209
0.28392637 -0.4273839 3.3137655
0.28464496 -0.41048801 3.3221526
0.28536725 -0.39350641 3.3305824
0.28609318 -0.37643838 3.3390548
0.28682283 -0.35928333 3.3475707
0.28755617 -0.34204051 3.3561299
0.28829333 -0.32470933 3.3647332
0.28903422 -0.307289 3.3733804
0.28977895 -0.28977895 3.3820724
0.29052755 -0.27217844 3.3908093
0.29128 -0.25448674 3.3995914
0.29203635 -0.23670316 3.4084191
0.29279667 -0.21882698 3.4172928
0.29356095 -0.20085751 3.426213
0.29432923 -0.18279395 3.4351797
0.29510155 -0.1646356 3.4441936
0.2958779 -0.14638171 3.4532547
0.2966584 -0.12803151 3.4623637
0.29744297 -0.10958426 3.4715209
0.29823172 -0.091039158 3.4807265
0.29902467 -0.072395444 3.4899812
0.29982185 -0.053652331 3.4992852
0.3006233 -0.034809012 3.5086391
0.30142903 -0.015864687 3.518043
0.30223912 0.0031814643 3.5274975
0.30305356 0.022330262 3.537003
0.30387238 0.041582536 3.5465598
0.30469564 0.060939129 3.5561683
0.3055234 0.080400892 3.565829
0.30635563 0.099968679 3.5755424
0.30719244 0.11964338 3.585309
0.30803382 0.13942584 3.595129
0.30887982 0.15931697 3.6050029
0.3097305 0.17931767 3.6149313
0.31058589 0.19942883 3.6249144
0.31144598 0.21965137 3.6349528
0.31231436 0.23998892 3.645088
0.31319767 0.2604486 3.6553974
0.31408602 0.28102434 3.6657655
0.3149794 0.3017171 3.6761923
0.31587788 0.32252795 3.6866786
0.31678152 0.34345785 3.6972251
0.31769034 0.36450785 3.7078321
0.31860435 0.38567895 3.7184999
0.31952366 0.40697226 3.7292295
0.32044831 0.42838877 3.740021
0.32137832 0.44992962 3.7508752
0.32231373 0.47159585 3.7617927
0.32325462 0.49338862 3.772774
0.32420099 0.51530898 3.7838194
0.32515293 0.53735799 3.7949297
0.32611048 0.55953693 3.8061056
0.32707369 0.58184689 3.8173473
0.3280426 0.604289 3.8286555
0.32901725 0.62686449 3.8400311
0.32999775 0.64957452 3.8514745
0.33098409 0.67242032 3.8629863
0.33197635 0.6954031 3.8745673
0.33297455 0.71852404 3.8862176
0.33397883 0.74178451 3.8979385
0.33498913 0.76518565 3.90973
0.3360056 0.78872889 3.9215934
0.33702821 0.81241536 3.9335287
0.3380571 0.83624649 3.9455369
0.33909228 0.86022353 3.9576187
