# .PCD v0.7 - Point Cloud Data file format
VERSION 0.7
FIELDS x y z
SIZE 4 4 4
TYPE F F F
COUNT 1 1 1
WIDTH 1458
HEIGHT 1
VIEWPOINT 0 0 0 1 0 0 0
POINTS 1458
DATA ascii
-0.34316513 1.3831435 4.0451574
-0.33317897 1.3831582 3.9951658
-0.34313372 1.4235463 3.9829841
-0.33429149 1.4394199 3.9403875
-0.32301691 1.4175367 3.92643
-0.33138743 1.4304744 3.9029565
-0.31816012 1.4663899 3.8848164
-0.32536077 1.4585984 3.860517
-0.31029874 1.4666917 3.8200281
-0.32340679 1.4738698 3.8224633
-0.31815538 1.5272318 3.7946589
-0.31118533 1.5048671 3.7717049
-0.29570156 1.5136783 3.7456434
-0.31210247 1.5293365 3.7122085
-0.29635838 1.548802 3.6891103
-0.29897222 1.5476005 3.6845839
-0.31499812 1.5570365 3.6575079
-0.41664821 0.9240371 4.9677706
-0.39305374 0.93936414 4.9358783
-0.40075719 0.97134066 4.899529
-0.40035921 1.0091661 4.8613124
-0.39294454 1.0052526 4.8193297
-0.40044665 1.0175266 4.7616858
-0.39207557 1.0358741 4.7442522
-0.37307173 1.0675271 4.7000232
-0.36720622 1.0679566 4.6626916
-0.35976937 1.0472188 4.4995093
-0.37278688 1.0860913 4.4669094
-0.3595753 1.1048141 4.4169436
-0.37018463 1.1012026 4.4202819
-0.37634906 1.1345686 4.3769283
-0.38168797 1.1544477 4.3583512
-0.34087574 1.1656293 4.321579
-0.34249613 1.1699276 4.285151
-0.33883715 1.1765432 4.2525244
-0.34301549 1.1888927 4.2287345
-0.35006544 1.2181876 4.1994314
-0.33878657 1.2217543 4.1666498
-0.34188038 1.2194617 4.1403241
-0.3444128 1.2681152 4.1240468
-0.32968467 1.2944623 4.14849
-0.3341231 1.3376415 4.1424165
-0.3466827 1.3200781 4.1450357
-0.33798912 1.3369534 4.0990152
-0.34184343 1.3527287 4.087956
-0.32396966 1.3815422 4.055182
-0.3430087 1.3779879 4.028966
-0.317693 1.3921384 3.9927719
-0.32684866 1.389834 3.9833016
-0.31744206 1.4291354 3.95802
-0.34326699 1.4355627 3.9196138
-0.33399865 1.4582469 3.898138
-0.33171985 1.4575856 3.8676565
-0.31734368 1.4648697 3.857866
-0.31979847 1.4696746 3.8325157
-0.31682602 1.5029123 3.7797697
-0.30336836 1.4991553 3.7790685
-0.31546569 1.5059388 3.7654519
-0.30958182 1.5266924 3.747565
-0.28399301 1.5475364 3.7098093
-0.29581326 1.5592592 3.6927061
-0.30382681 1.562463 3.6695361
-0.38022202 0.90296781 5.0174308
-0.38208804 0.93200749 4.9585228
-0.39101782 0.95951211 4.9182734
-0.382346 0.96943468 4.8746495
-0.38743159 1.006649 4.8274708
-0.38245812 1.0025197 4.8157959
-0.38987145 1.0308673 4.7600436
-0.389763 1.0500165 4.7237482
-0.35597757 1.0533983 4.6928778
-0.36639196 1.0962707 4.6451206
-0.34560928 1.0801668 4.51126
-0.3607696 1.0784528 4.4367461
-0.34707195 1.0814629 4.4105248
-0.34686831 1.115589 4.3941069
-0.33328021 1.1252862 4.3708329
-0.3532159 1.1545007 4.3278584
-0.34939834 1.1620982 4.2937641
-0.34936193 1.187464 4.2793007
-0.33588454 1.2021873 4.2352071
-0.34106967 1.2156708 4.2207317
-0.34825152 1.2342234 4.1696892
-0.33119023 1.2317902 4.1610799
-0.31710088 1.2561281 4.1135249
-0.32865471 1.2741296 4.1291027
-0.34306389 1.2801244 4.1426535
-0.32820421 1.3268572 4.1500111
-0.31403205 1.333636 4.1212425
-0.3318333 1.3535603 4.1092305
-0.3389599 1.3496735 4.0826302
-0.32394171 1.3794158 4.0271068
-0.320961 1.3865956 4.0200567
-0.31574506 1.4121143 3.9968026
-0.33780408 1.4028709 3.9613996
-0.32635677 1.4145572 3.9484091
-0.31032941 1.4325081 3.9050159
-0.30100065 1.4718001 3.9064224
-0.3304145 1.4512382 3.8755758
-0.30928898 1.4722557 3.8493547
-0.30337319 1.5010222 3.8123965
-0.32017478 1.4923942 3.7878046
-0.28856668 1.5180534 3.7744222
-0.29155713 1.5250666 3.7575228
-0.28864524 1.5252887 3.7288361
-0.28703663 1.531885 3.7134876
-0.28893995 1.5619249 3.672569
-0.30405766 1.5592886 3.6640174
-0.39309755 0.90766191 4.9836268
-0.40200028 0.93317753 4.9272838
-0.38618094 0.9542914 4.9082289
-0.37304488 0.98154014 4.8666368
-0.37774956 0.99109495 4.8249555
-0.37796041 1.0389855 4.7786288
-0.36353517 1.038424 4.7467113
-0.37055844 1.0726832 4.7143154
-0.37068149 1.0612242 4.6960998
-0.34675726 1.0594425 4.4971628
-0.34050995 1.0614153 4.4663496
-0.35777158 1.1025523 4.4478512
-0.337069 1.0981504 4.4266849
-0.37736639 1.1186783 4.3800383
-0.35155052 1.1375331 4.3447609
-0.33965263 1.149266 4.3226442
-0.32752311 1.1629647 4.2736025
-0.36247116 1.1811688 4.2474341
-0.32658723 1.1972737 4.2428265
-0.33183837 1.2091125 4.2111754
-0.33394599 1.239097 4.1775656
-0.32291368 1.2209207 4.1634932
-0.33011848 1.2484248 4.1306062
-0.32954854 1.2893032 4.1225772
-0.32025039 1.3115069 4.1311064
-0.32565498 1.3473085 4.1527514
-0.33136392 1.3416185 4.131516
-0.32942745 1.3359336 4.0613332
-0.31511229 1.3672211 4.0700979
-0.32648602 1.3921688 4.0345583
-0.31110775 1.386659 4.0049825
-0.32252538 1.4069012 3.9792559
-0.32196495 1.4147731 3.9387398
-0.30372924 1.4432952 3.9278839
-0.30021754 1.454511 3.9094822
-0.28594184 1.4670669 3.9083591
-0.2994284 1.4726862 3.8556349
-0.31603506 1.480739 3.8258119
-0.29634249 1.4888165 3.8140535
-0.29033467 1.4977874 3.7893126
-0.28685576 1.5010555 3.7775016
-0.30035722 1.5307696 3.7380836
-0.29096237 1.5263923 3.7070122
-0.28903592 1.5519297 3.6937099
-0.29327515 1.5563402 3.6719384
-0.2789574 1.5583839 3.6438413
-0.37547985 0.93654257 4.949492
-0.37774903 0.9362973 4.9223423
-0.36326152 0.94395387 4.8925653
-0.38551584 0.98443711 4.872684
-0.37500831 1.0120075 4.8072791
-0.35697028 1.016013 4.7847266
-0.34694374 1.0553489 4.7437449
-0.36219004 1.0632447 4.6988859
-0.36317644 1.0490754 4.5431962
-0.35682988 1.056527 4.4913578
-0.36259007 1.0916034 4.4706163
-0.33536169 1.0725396 4.427002
-0.32456502 1.0997404 4.4240413
-0.34461406 1.1186945 4.389524
-0.31408888 1.1272913 4.3553872
-0.3221553 1.1468831 4.311573
-0.33552274 1.1598783 4.3009219
-0.33423215 1.1788517 4.254251
-0.32771504 1.193881 4.2269444
-0.31413174 1.2200636 4.1923828
-0.31959623 1.2142478 4.1653395
-0.32421783 1.2417873 4.1416125
-0.3221885 1.2463706 4.120913
-0.30691856 1.2746954 4.1223121
-0.30976304 1.3183638 4.1349263
-0.3129124 1.3556954 4.1314158
-0.32200861 1.344178 4.1061492
-0.3379288 1.3590519 4.0877419
-0.30011979 1.3683925 4.0439181
-0.30448678 1.3942055 4.0225654
-0.30143344 1.4017211 4.0331588
-0.31305289 1.4200783 3.9908214
-0.31027836 1.4214033 3.9546301
-0.30350044 1.4269514 3.9346263
-0.30613574 1.4476031 3.8934016
-0.29717574 1.4532996 3.8840125
-0.29260832 1.4746521 3.8509493
-0.30730778 1.4668331 3.8303852
-0.28380936 1.5079948 3.7916617
-0.28791648 1.504859 3.7931767
-0.27313527 1.5209817 3.7461874
-0.28388184 1.5269215 3.730864
-0.30731922 1.5431764 3.7151117
-0.29842463 1.5421897 3.6818089
-0.2882143 1.5500073 3.6718667
-0.36676109 0.94015694 4.994782
-0.36130655 0.92772037 4.9501381
-0.37461251 0.92687494 4.9190764
-0.3630363 0.9627831 4.8565521
-0.36898884 0.97168827 4.8325567
-0.35715061 1.0053693 4.8048511
-0.34091857 1.0322266 4.7551327
-0.37208727 1.0531796 4.7105207
-0.36137965 1.0643653 4.6990647
-0.35004902 1.0480329 4.5290442
-0.33226791 1.0808939 4.4958696
-0.33526024 1.0737417 4.4544692
-0.33405596 1.0983473 4.4388733
-0.33611754 1.1195599 4.4046779
-0.32946211 1.1297001 4.3774934
-0.31615239 1.147872 4.3228788
-0.3178069 1.1472573 4.3158555
-0.32289872 1.1706729 4.273221
-0.31716776 1.2084348 4.2477865
-0.31495836 1.2044036 4.2111692
-0.31141049 1.2232223 4.1899738
-0.31967121 1.2322394 4.1752052
-0.31266928 1.2329843 4.1231079
-0.29600006 1.2664093 4.0961957
-0.29383916 1.2719299 4.1134295
-0.31757388 1.3274751 4.1368556
-0.32822931 1.3456579 4.1384311
-0.31072605 1.3527179 4.0939622
-0.29851127 1.3758078 4.0663447
-0.29646188 1.364224 4.0375018
-0.30202091 1.3891369 4.0246048
-0.29304203 1.3974665 3.9821737
-0.28133249 1.4116603 3.9899478
-0.29545954 1.4433808 3.9450049
-0.28494295 1.436497 3.9104464
-0.30138236 1.4447982 3.9268274
-0.2906706 1.4695506 3.8584635
-0.29469153 1.4709206 3.8513465
-0.28837237 1.4815261 3.8366292
-0.27187613 1.5029422 3.820749
-0.28897646 1.5060438 3.7771041
-0.27349985 1.5238163 3.7552481
-0.2864567 1.5237653 3.7128165
-0.28671306 1.549322 3.6996706
-0.26885653 1.5580487 3.6913049
-0.25228351 1.5621505 3.6528475
-0.36963594 0.92717129 4.9919157
-0.36876142 0.93257397 4.9206738
-0.35609415 0.96910954 4.8977118
-0.35655266 0.98133582 4.8654284
-0.33832911 0.99601769 4.8088698
-0.3556886 1.005702 4.7656031
-0.3450163 1.0286421 4.7510214
-0.3477394 1.0515677 4.7228446
-0.3246083 1.0396024 4.552206
-0.32679117 1.0473777 4.5164599
-0.31965148 1.0688859 4.4916625
-0.31465712 1.0874029 4.4528446
-0.32024425 1.0947448 4.4262996
-0.32527354 1.1205252 4.3755856
-0.33104694 1.1349964 4.369874
-0.31983098 1.1432323 4.3208714
-0.31295922 1.1471797 4.2861533
-0.32011443 1.1839035 4.2501316
-0.31712306 1.1812572 4.2254109
-0.30125713 1.2157162 4.1859131
-0.32503611 1.2117355 4.1810784
-0.29438281 1.2160701 4.15835
-0.319675 1.2792109 4.113544
-0.2877886 1.2881293 4.096467
-0.29025334 1.3258578 4.1073828
-0.30744419 1.3231262 4.1211863
-0.30430228 1.3273385 4.1050782
-0.28920832 1.356951 4.0808988
-0.30920568 1.382342 4.0617447
-0.29793733 1.3873585 4.0378642
-0.30348131 1.4000814 4.0135503
-0.30066407 1.4117692 3.9801383
-0.2867482 1.4119974 3.9593573
-0.28088495 1.4332634 3.953052
-0.28345469 1.4446099 3.9292984
-0.28547636 1.4566231 3.8796208
-0.27584571 1.4464124 3.8912954
-0.275738 1.4655832 3.8376167
-0.29920137 1.484725 3.8088367
-0.28207457 1.5038912 3.7912252
-0.28045148 1.5019215 3.7653451
-0.26443264 1.4926859 3.7600727
-0.28556427 1.5133698 3.7224994
-0.25367242 1.5354856 3.6929455
-0.2689558 1.5486695 3.6555114
-0.27922583 1.5687399 3.6425581
-0.35465276 0.92196381 4.9691243
-0.35876185 0.94969481 4.9416666
-0.34348205 0.94238722 4.8903461
-0.36813861 0.99037498 4.8605113
-0.3444148 0.99897099 4.8156857
-0.34964925 1.0316399 4.7720885
-0.33781481 1.0310279 4.7291608
-0.33482873 1.0278832 4.5696893
-0.3194631 1.0521772 4.5276446
-0.32369784 1.0418178 4.5015917
-0.32046708 1.0821115 4.4679871
-0.32507882 1.0969235 4.442493
-0.30272442 1.1031557 4.4116998
-0.31405741 1.1107506 4.3759432
-0.31888157 1.1315323 4.3434238
-0.31786755 1.1647036 4.3175793
-0.31267872 1.1668043 4.2972064
-0.3043943 1.1935842 4.2456989
-0.28169066 1.194226 4.2198658
-0.29794732 1.2109512 4.2012043
-0.29118559 1.2254174 4.168396
-0.30029035 1.2289876 4.1191292
-0.30328301 1.2686083 4.1126647
-0.27192184 1.2744935 4.0987115
-0.30505449 1.2902682 4.1133695
-0.28565702 1.3399702 4.1159673
-0.28059947 1.3406662 4.1112847
-0.29890159 1.3487775 4.0769634
-0.28462198 1.3790276 4.0634146
-0.27511489 1.3738111 4.0389614
-0.29446131 1.4003688 4.0110002
-0.27349469 1.407248 3.9739184
-0.26968196 1.4397302 3.9406943
-0.27793917 1.411422 3.9105687
-0.26991755 1.4315577 3.8899078
-0.25867337 1.4396898 3.87535
-0.27137712 1.452114 3.8526773
-0.26890513 1.4759147 3.823169
-0.2538743 1.4963175 3.8219631
-0.27762294 1.4959809 3.7790947
-0.27951404 1.5124859 3.764415
-0.27927959 1.5021176 3.7296205
-0.262786 1.5429692 3.7054341
-0.2507779 1.5380002 3.6744351
-0.26294282 1.5586079 3.6817107
-0.35376841 0.91113979 5.0134578
-0.32981953 0.94028115 4.9444232
-0.34310514 0.93163812 4.9073391
-0.32279903 0.97562212 4.8904858
-0.33657163 1.007465 4.8303385
-0.33209655 0.99991286 4.7970409
-0.34074613 1.0291904 4.7512908
-0.32526401 1.0277612 4.70959
-0.30944017 1.0259261 4.5571423
-0.31234956 1.0494621 4.5279512
-0.31402257 1.0605971 4.5059776
-0.30213946 1.0996932 4.4702377
-0.30555326 1.1148582 4.4227872
-0.31075737 1.1013356 4.3837228
-0.30612248 1.1329511 4.3718696
-0.30419123 1.1334054 4.2679653
-0.28462234 1.1472629 4.3000607
-0.28116229 1.1799775 4.277523
-0.28071111 1.1988097 4.2659316
-0.28497836 1.2060312 4.218122
-0.2922135 1.2091627 4.183485
-0.2777454 1.2229025 4.1492882
-0.29434985 1.2550185 4.1317554
-0.2819683 1.270008 4.0827003
-0.28312513 1.2832471 4.0915952
-0.28610253 1.3103446 4.1272779
-0.29002094 1.3314445 4.1271091
-0.29922214 1.3377885 4.103126
-0.29204106 1.3539095 4.0846272
-0.28654376 1.3609432 4.0534701
-0.28713855 1.3965973 4.0159287
-0.27695143 1.3975084 3.9839389
-0.26547927 1.4184204 3.9715166
-0.27909037 1.4270756 3.9408479
-0.27735886 1.4413465 3.9103804
-0.27252874 1.4392507 3.8815939
-0.27394143 1.4671643 3.8699613
-0.28072825 1.4751294 3.8292866
-0.24854243 1.4740218 3.8215547
-0.26838824 1.4975468 3.7872479
-0.24407277 1.5156906 3.7535973
-0.27502698 1.5192395 3.7293816
-0.27139783 1.5194575 3.7261157
-0.25623158 1.5487719 3.7284822
-0.25427681 1.5575 3.6614692
-0.26518103 1.556003 3.6598926
-0.3436951 0.92144418 4.9955368
-0.33737034 0.93652654 4.9436584
-0.33785015 0.9674086 4.8901529
-0.34965923 0.97071141 4.8564548
-0.3338874 1.0095036 4.8114667
-0.31482854 1.0213407 4.7944269
-0.33119178 1.0454354 4.7486763
-0.30476213 1.0142399 4.6030459
-0.30418882 1.0372417 4.5395079
-0.30789456 1.0551924 4.5136333
-0.31653082 1.0775385 4.4760537
-0.3058829 1.0996687 4.443716
-0.32766518 1.1180805 4.4397206
-0.29034954 1.1128101 4.3878632
-0.29429078 1.1287718 4.2810884
-0.30018127 1.1399214 4.265173
-0.29210579 1.1567442 4.2902341
-0.27550617 1.176072 4.2723527
-0.27682951 1.179015 4.2340922
-0.29859895 1.2197121 4.2117324
-0.26431659 1.2172687 4.1643262
-0.27121076 1.2538584 4.1435871
-0.28906542 1.2551886 4.1368051
-0.28245196 1.2672406 4.0899272
-0.27875757 1.3135822 4.0894799
-0.28379768 1.3122809 4.0884404
-0.26427782 1.3412691 4.1119585
-0.27762899 1.3503127 4.0991211
-0.27097899 1.3505068 4.0556254
-0.26198801 1.3831232 4.0274282
-0.26399881 1.392261 4.0000916
-0.2634154 1.4155818 3.960628
-0.2707212 1.3952918 3.9636431
-0.26326638 1.408923 3.9244747
-0.25745502 1.4376161 3.9027736
-0.26428789 1.4350255 3.8824003
-0.25595382 1.4774469 3.8648748
-0.26612389 1.4606326 3.8383374
-0.25152898 1.4864924 3.8023522
-0.25982133 1.5133109 3.7845838
-0.26032659 1.5120617 3.7744014
-0.25208905 1.5453582 3.7437925
-0.25328565 1.5174885 3.706713
-0.24603763 1.5175486 3.6766281
-0.27380913 1.5560254 3.6480536
-0.24567088 1.5849346 3.6561458
-0.32105353 0.92015177 4.9653454
-0.32503927 0.95022506 4.9337406
-0.34537402 0.97725618 4.8785076
-0.3069202 0.99997431 4.8391104
-0.32486945 1.0045881 4.8275232
-0.32346016 1.0260103 4.7870555
-0.28886172 0.9886055 4.5989046
-0.29511359 1.0151509 4.5643911
-0.30658302 1.0417129 4.5349913
-0.30374199 1.0560921 4.4953089
-0.28680706 1.0763764 4.4576035
-0.27905032 1.0809493 4.4411998
-0.28501794 1.1019771 4.4115782
-0.28373605 1.1262873 4.3733587
-0.28731477 1.1252168 4.2885866
-0.28268683 1.1552221 4.2843633
-0.28260937 1.1666948 4.2986531
-0.28766105 1.1879178 4.2603049
-0.282195 1.1998992 4.2297382
-0.26369837 1.2112238 4.2049899
-0.2777974 1.2274709 4.1663313
-0.27321398 1.2608417 4.1310353
-0.28204602 1.245084 4.1196003
-0.25116786 1.2604283 4.0796943
-0.2655074 1.2687182 4.1018629
-0.27638415 1.3068103 4.1002388
-0.25747168 1.3582993 4.1168337
-0.27678534 1.3448853 4.0610142
-0.28306538 1.3712482 4.0582223
-0.27192178 1.3876092 4.013144
-0.2577053 1.405277 3.9913232
-0.26547149 1.4140977 3.9755268
-0.2253409 1.4232725 3.9288604
-0.26575691 1.439631 3.9305742
-0.26187667 1.4340159 3.8985085
-0.2485818 1.4607037 3.8713291
-0.24274933 1.4694142 3.8527372
-0.24885336 1.4762181 3.8388209
-0.25360331 1.4991819 3.8010595
-0.25112286 1.5089802 3.7807279
-0.25724334 1.4988641 3.7709126
-0.24007352 1.5145563 3.7386279
-0.25323623 1.5214924 3.7157974
-0.23963302 1.5434614 3.6855922
-0.23864257 1.5483162 3.6683824
-0.29687953 0.92205638 4.9741373
-0.32294434 0.93972254 4.956398
-0.30288321 0.96327168 4.9284773
-0.31968522 0.96732545 4.869555
-0.32203853 0.97975922 4.8467422
-0.30623665 1.0087347 4.8048339
-0.30923468 1.0308055 4.755414
-0.28219512 1.0142189 4.5930843
-0.28176481 1.0478601 4.5544243
-0.29605314 1.0359952 4.5283818
-0.28692433 1.0467036 4.5001831
-0.28989133 1.076583 4.4703231
-0.27441695 1.0809368 4.4361706
-0.29135439 1.1185209 4.3984408
-0.26945215 1.1191212 4.3067183
-0.26824889 1.1411695 4.2753887
-0.27072236 1.1386937 4.2675338
-0.27492228 1.19583 4.2782774
-0.30052701 1.1974313 4.2536588
-0.27173862 1.2067207 4.2229047
-0.26214018 1.2301569 4.1864347
-0.2634702 1.2343043 4.1507683
-0.27692598 1.2301449 4.1045752
-0.24460655 1.2497377 4.0954275
-0.26045954 1.2768091 4.0728669
-0.24826013 1.2996259 4.0828376
-0.25276035 1.3550503 4.0873642
-0.26679882 1.3501627 4.1078243
-0.25810441 1.3622152 4.0759983
-0.24948695 1.3929704 4.035027
-0.27912417 1.3733592 4.0224199
-0.24344552 1.4019688 3.9856274
-0.25091353 1.4186963 3.9704828
-0.25297606 1.4309181 3.9554155
-0.25004256 1.4429299 3.9236858
-0.24469431 1.4413438 3.9009514
-0.24211094 1.4663825 3.8723099
-0.24580207 1.4685473 3.836545
-0.24199712 1.482886 3.8162889
-0.24809752 1.5029184 3.8078964
-0.25847903 1.5268595 3.7691534
-0.22695638 1.5163276 3.7362082
-0.23173162 1.5356777 3.7170036
-0.22822517 1.5344639 3.6987159
-0.23646124 1.555189 3.672513
-0.22945063 1.538378 3.6457961
-0.30403182 0.91154617 4.9841356
-0.32374185 0.9273625 4.9433832
-0.30687314 0.95140803 4.8977313
-0.27924764 0.96748143 4.8569818
-0.30196285 0.98716289 4.8339434
-0.30391252 1.0127707 4.7889457
-0.2737385 1.0092504 4.616806
-0.30333504 1.0404778 4.5617766
-0.27311084 1.0458509 4.5444589
-0.28426829 1.0548862 4.5232501
-0.27614966 1.0733113 4.4641581
-0.27850294 1.0853968 4.4485617
-0.28322941 1.096115 4.4202046
-0.2916835 1.1181651 4.3207636
-0.28155637 1.122529 4.2726026
-0.25890008 1.146607 4.2500777
-0.28245503 1.1480024 4.2777333
-0.26102009 1.1779726 4.240798
-0.26505893 1.1971673 4.2251797
-0.27010882 1.1894133 4.2030396
-0.2491048 1.2339193 4.1783228
-0.27688271 1.2550734 4.1447721
-0.24592964 1.2598658 4.1142049
-0.2478189 1.2658148 4.0809822
-0.2572293 1.2856572 4.0881405
-0.28433007 1.3130322 4.091156
-0.26586932 1.3342781 4.0999904
-0.24033056 1.3492532 4.1000385
-0.25472501 1.3658289 4.0623407
-0.24973172 1.3651365 4.0290031
-0.25419176 1.3881698 3.9987702
-0.27556786 1.4085747 3.9738252
-0.25230679 1.4092062 3.9711671
-0.23926103 1.421067 3.9312675
-0.22390315 1.4319495 3.9229586
-0.24503945 1.4513701 3.899457
-0.22035958 1.4650563 3.8615675
-0.24361767 1.4610093 3.8289888
-0.24180019 1.4820122 3.8230069
-0.23430209 1.5012194 3.7789857
-0.23317137 1.5278502 3.7822092
-0.24103299 1.5226138 3.7477164
-0.2393519 1.543861 3.71156
-0.24142544 1.535597 3.7003806
-0.23675694 1.542393 3.6682076
-0.2371996 1.5736885 3.6507537
-0.29982623 0.92154902 4.9608002
-0.29891962 0.96469086 4.9331985
-0.28575337 0.96938777 4.9002023
-0.30267352 0.97921258 4.8710389
-0.27013072 1.0096267 4.8066335
-0.28082594 1.012978 4.7741694
-0.30357277 1.0056853 4.6207399
-0.27598649 1.0129193 4.5725803
-0.26033446 1.0505588 4.5336614
-0.27046356 1.0544685 4.4974508
-0.27458736 1.0785313 4.4754333
-0.28608614 1.1046062 4.4567652
-0.253739 1.0909628 4.4232721
-0.24383806 1.1166527 4.3028159
-0.25805876 1.099889 4.279932
-0.25891703 1.1502248 4.2479053
-0.26273742 1.1593881 4.2906199
-0.25561297 1.1704971 4.2528772
-0.26155424 1.2150772 4.2432556
-0.25224113 1.1977584 4.1851616
-0.25173587 1.2173086 4.1584916
-0.23442516 1.2521507 4.1547027
-0.25374678 1.2538208 4.094213
-0.24866104 1.2796444 4.0875592
-0.22939298 1.30497 4.0615325
-0.25216192 1.3037037 4.0790772
-0.24711408 1.3621616 4.0962229
-0.24082589 1.3609918 4.0786185
-0.25272554 1.3702075 4.0383682
-0.25575623 1.3906552 4.0157194
-0.25008127 1.3736508 4.003561
-0.23331895 1.4029176 3.9777839
-0.23322617 1.4206684 3.9429381
-0.23285881 1.4277276 3.9257505
-0.23519473 1.4469541 3.9271045
-0.24042334 1.4543902 3.8781204
-0.22556239 1.4377878 3.8318436
-0.21606666 1.4969997 3.831192
-0.22029386 1.477052 3.7915456
-0.21394116 1.5002489 3.7608738
-0.23216447 1.5113137 3.7581053
-0.22806835 1.5222018 3.7356911
-0.22320123 1.5445215 3.7104702
-0.24311501 1.548569 3.7040334
-0.22189067 1.5483389 3.65781
-0.29496017 0.91053605 5.0031714
-0.30268186 0.92888343 4.9441147
-0.28503892 0.96004444 4.9205899
-0.27561748 0.98142081 4.8883176
-0.28975135 0.97837186 4.839355
-0.27261138 0.98831308 4.8061938
-0.26926106 0.99370199 4.6370969
-0.28507248 1.0160658 4.5957866
-0.26462999 1.0335279 4.552474
-0.26651645 1.0593108 4.5476828
-0.25728959 1.0705075 4.4892764
-0.25166461 1.0595312 4.4593263
-0.24306273 1.0872197 4.4317894
-0.24073073 1.1032404 4.3330746
-0.24605094 1.1234577 4.2929621
-0.25305557 1.1073985 4.2826371
-0.24682042 1.1562183 4.2513103
-0.25752419 1.1542736 4.2604423
-0.2213199 1.1893908 4.2365608
-0.24944621 1.1957098 4.2080965
-0.23942211 1.2187955 4.2029824
-0.24624468 1.2382261 4.1633272
-0.2375312 1.2505544 4.1279092
-0.25014627 1.2584465 4.0790095
-0.23249619 1.2689596 4.0789986
-0.24059212 1.3062688 4.0659657
-0.22767496 1.3169185 4.0878301
-0.22567257 1.3385701 4.0843077
-0.22803693 1.3430682 4.0883117
-0.2505739 1.3777834 4.0417666
-0.24745367 1.3855253 4.0278292
-0.23469584 1.3915972 3.9854381
-0.22246754 1.4129337 3.9650354
-0.2342073 1.4116285 3.9360671
-0.25420827 1.4256748 3.9221754
-0.21744786 1.4555266 3.8756251
-0.24666432 1.4695684 3.8499379
-0.23714828 1.4765804 3.8370264
-0.21934515 1.4979507 3.8212364
-0.21855573 1.4942969 3.7856243
-0.22709937 1.5034587 3.7521284
-0.21336001 1.5189909 3.7490344
-0.21914938 1.5332503 3.7145395
-0.23429714 1.5409135 3.6850789
-0.21684749 1.5620565 3.6598299
-0.20548002 1.5771172 3.6720514
-0.26307505 0.91908473 4.9778795
-0.29058248 0.94141889 4.9292326
-0.27963057 0.97231466 4.8804007
-0.27349132 0.97537094 4.86168
-0.29308486 0.9967283 4.8171477
-0.25269571 0.99355918 4.6558037
-0.26581365 1.0104746 4.6186609
-0.27247667 1.0234907 4.5832329
-0.24641259 1.0357134 4.5489531
-0.25486207 1.0632017 4.5232778
-0.2475207 1.0477939 4.4859805
-0.26489118 1.0875554 4.4581861
-0.24519123 1.1032335 4.371592
-0.24853045 1.1166307 4.323154
-0.24573757 1.1104357 4.302639
-0.24452788 1.1537602 4.2567859
-0.24353705 1.1634516 4.2582569
-0.23829569 1.1760008 4.2526011
-0.25285906 1.1939807 4.2198734
-0.23481022 1.2003241 4.214951
-0.24861696 1.2226634 4.1710138
-0.2287344 1.2417665 4.1402059
-0.228963 1.2409972 4.1102157
-0.23270468 1.2506782 4.0896707
-0.23174921 1.2829717 4.0574551
-0.22355339 1.2800179 4.0635896
-0.23451442 1.3359836 4.0722251
-0.23335081 1.354136 4.0905337
-0.22807297 1.3927101 4.0630078
-0.22105116 1.3939537 4.029336
-0.22426026 1.400728 4.0214725
-0.23064631 1.3942512 3.9761326
-0.22884227 1.4177486 3.9426794
-0.21713196 1.4262 3.9389255
-0.22478536 1.4342468 3.9146597
-0.2117407 1.4529481 3.8742146
-0.21613911 1.452363 3.8603363
-0.21304955 1.4928236 3.8364894
-0.20152146 1.4888042 3.7996881
-0.21655385 1.5058119 3.7911711
-0.22825779 1.5253567 3.7757976
-0.21619213 1.5218254 3.7325878
-0.2314419 1.5190071 3.7163644
-0.21520036 1.5480325 3.6850352
-0.21457036 1.5491147 3.6714025
-0.19546956 1.5667168 3.6529605
-0.27156588 0.94044596 4.9661636
-0.28108573 0.94511825 4.9331298
-0.2770215 0.9774875 4.8978024
-0.27037451 0.97996271 4.8331456
-0.26771787 1.0116425 4.8094368
-0.27535361 0.99065989 4.6456642
-0.24907455 1.009894 4.611464
-0.24512734 1.0310562 4.5785995
-0.2394473 1.0314726 4.5171952
-0.25280976 1.0397527 4.5049839
-0.25879571 1.0841054 4.4706979
-0.24817201 1.085991 4.4381518
-0.25002739 1.1023844 4.3510442
-0.23343632 1.1067944 4.3236904
-0.25171319 1.1168839 4.2900867
-0.22405408 1.1221856 4.2565789
-0.24396515 1.1778263 4.2426643
-0.23521875 1.1724893 4.2439842
-0.2249127 1.2038097 4.1926498
-0.24283078 1.2363069 4.1892166
-0.24076226 1.2245564 4.154779
-0.22240357 1.2443101 4.133142
-0.21884939 1.2596269 4.1192217
-0.22667816 1.2730404 4.0749431
-0.2135925 1.2768887 4.0532994
-0.23846771 1.3267691 4.0711417
-0.2160504 1.3318396 4.0919514
-0.23051897 1.3739818 4.0757694
-0.22705905 1.3654002 4.0481129
-0.22125286 1.392897 4.0206242
-0.22841808 1.3845905 4.0151129
-0.21478106 1.4159114 3.973922
-0.22001903 1.4146985 3.9542503
-0.21223187 1.4472178 3.9199409
-0.20850267 1.4422938 3.9082825
-0.22648138 1.446944 3.8703423
-0.22365077 1.464003 3.8381419
-0.20806886 1.468437 3.8244398
-0.22040562 1.4918922 3.8109579
-0.21256799 1.5069705 3.7754519
-0.21172 1.5102034 3.7509143
-0.19873257 1.518842 3.7564328
-0.22673509 1.5305257 3.7078569
-0.21224532 1.5414675 3.6927056
-0.20898223 1.5607355 3.682404
-0.15194348 -1.2907655 3.0907109
-0.26430893 0.91779095 4.9615612
-0.26733616 0.94509631 4.948175
-0.25633183 0.96220952 4.9072523
-0.25213638 0.97861046 4.8601723
-0.25024018 0.97478437 4.6798429
-0.23968211 0.98633891 4.6441312
-0.25104102 1.0177041 4.6121769
-0.258858 1.030574 4.5804615
-0.23040161 1.0332382 4.5432434
-0.26412499 1.0608044 4.5056353
-0.23165011 1.0641693 4.4702916
-0.228936 1.0839723 4.3815508
-0.252821 1.092719 4.3446097
-0.2309729 1.1055615 4.3230424
-0.22831966 1.1291952 4.2949858
-0.22441994 1.1425157 4.238678
-0.22778682 1.1745825 4.233881
-0.22728522 1.1782776 4.2588086
-0.21258336 1.20732 4.2157922
-0.20129615 1.2202895 4.1845956
-0.23817672 1.217312 4.1449423
-0.22116221 1.2325729 4.1500816
-0.21314546 1.2582997 4.1058569
-0.21604851 1.2842937 4.0784035
-0.21130541 1.2719908 4.0663352
-0.22707368 1.2981583 4.0675321
-0.22720617 1.3371329 4.075695
-0.20772649 1.3607448 4.0835147
-0.23320779 1.3660251 4.0585308
-0.2146147 1.3822584 4.0191569
-0.20255099 1.4034287 3.9854279
-0.2108124 1.4081677 3.98066
-0.2032903 1.4187615 3.9556215
-0.21764916 1.4394848 3.9155262
-0.20765747 1.4397962 3.9032567
-0.19942078 1.4508985 3.8677323
-0.19107533 1.4648094 3.8322253
-0.19339202 1.474584 3.8321874
-0.22165421 1.5049813 3.8125672
-0.20233756 1.483938 3.7663374
-0.20691477 1.5034019 3.7634706
-0.1915395 1.5421169 3.7360237
-0.20598592 1.5548544 3.7254236
-0.21272653 1.5446244 3.6966894
-0.2163793 1.5650896 3.6590061
-0.15905015 -1.2887465 3.1160016
-0.25011551 0.92940903 4.9685798
-0.24962312 0.94035423 4.9342942
-0.23301412 0.96443272 4.8801236
-0.26338324 0.95309657 4.8555355
-0.24571504 0.97422343 4.6952968
-0.25817209 1.0033222 4.6400919
-0.25527963 0.99455154 4.5946326
-0.25071561 1.0169063 4.570106
-0.21863644 1.0306444 4.5572138
-0.24387421 1.0656681 4.4919209
-0.21517678 1.0631747 4.4660182
-0.21865706 1.0710107 4.3803802
-0.2222558 1.1092408 4.3460631
-0.21395612 1.1257586 4.3224497
-0.21350685 1.1305249 4.2959495
-0.20853357 1.1434726 4.240912
-0.23367134 1.1651105 4.2310719
-0.20299537 1.1942377 4.2515569
-0.22183511 1.1822743 4.230454
-0.23285559 1.2161394 4.1903543
-0.20206086 1.2406541 4.1597576
-0.20827849 1.2521665 4.1472821
-0.2098241 1.2445811 4.1094494
-0.24128044 1.2687178 4.0743666
-0.21136214 1.2782962 4.0553684
-0.22376609 1.3217245 4.0551224
-0.19545093 1.3530298 4.078897
-0.201362 1.3522528 4.0794396
-0.20490804 1.3702374 4.0617213
-0.20975956 1.3874296 4.0265498
-0.21553199 1.3963212 3.9956799
-0.19595639 1.4174182 3.9942274
-0.20460235 1.4309578 3.9584882
-0.19514401 1.4436865 3.9168413
-0.2027985 1.4330611 3.8968356
-0.18819569 1.4623927 3.8615429
-0.20236117 1.4844984 3.8472798
-0.20759061 1.472832 3.8407986
-0.1928871 1.503021 3.7962456
-0.20063883 1.4945456 3.7878864
-0.19205502 1.5194875 3.770952
-0.1997862 1.5304868 3.7332358
-0.18961693 1.5310894 3.7074108
-0.19653006 1.5305027 3.6602182
-0.19212168 1.5538982 3.6561117
-0.15165521 -1.2981218 3.106035
-0.24024829 0.93266231 4.9615407
-0.2307622 0.93373841 4.9117289
-0.25284362 0.97129488 4.8817248
-0.24686751 0.98934841 4.8357029
-0.22928405 0.96125215 4.6959124
-0.21316595 1.0039809 4.6363688
-0.23533767 1.017624 4.6170044
-0.21769616 1.0049196 4.5690832
-0.24854568 1.0590651 4.5275517
-0.211897 1.0351748 4.4972882
-0.21586296 1.0648403 4.4657393
-0.20798174 1.0643876 4.3725076
-0.20708816 1.1069568 4.3413444
-0.20319121 1.1005393 4.3259735
-0.21311899 1.1062609 4.2689695
-0.20801282 1.146373 4.2369952
-0.20492306 1.1443783 4.2218704
-0.21504758 1.1772604 4.2379308
-0.19914508 1.1994871 4.222497
-0.22927648 1.2162024 4.1957517
-0.22683015 1.2200195 4.1764736
-0.20450181 1.2466861 4.1446137
-0.2004846 1.2624105 4.1233344
-0.20065033 1.2701755 4.0680966
-0.19863147 1.2836051 4.0633745
-0.19183213 1.2800564 4.0474191
-0.18037026 1.3421564 4.0643387
-0.2214614 1.3643274 4.0781851
-0.20765436 1.3587755 4.0694408
-0.20212096 1.3828772 4.0089383
-0.20523413 1.3814495 4.0070806
-0.20221633 1.3988419 3.982486
-0.20141824 1.4079086 3.9386899
-0.20349763 1.4544001 3.9236085
-0.21223424 1.428995 3.9086826
-0.2131266 1.4592533 3.8920527
-0.17172717 1.4652305 3.8658168
-0.18647702 1.4666768 3.8171022
-0.20476894 1.4819951 3.8048372
-0.19191526 1.4953179 3.7885182
-0.19176936 1.5059509 3.7608399
-0.18384202 1.5377238 3.7229912
-0.18446366 1.5410042 3.7316406
-0.18566555 1.5539237 3.7000802
-0.17014359 1.5540172 3.6633098
-0.14241882 -1.2987993 3.0975819
-0.23825198 0.93251097 4.9952559
-0.24713847 0.93753934 4.9261131
-0.24678859 0.97229916 4.8822608
-0.23942177 0.95299071 4.708549
-0.22070178 0.98043948 4.6846881
-0.2251505 0.98598546 4.6503048
-0.22049327 1.0147607 4.5998788
-0.2158777 1.0317173 4.5898566
-0.20261016 1.0275182 4.5123043
-0.20981367 1.0355191 4.5011034
-0.21322176 1.076354 4.4714437
-0.20577195 1.0704128 4.3812208
-0.19074842 1.098995 4.3262405
-0.21477945 1.1037146 4.3332882
-0.21450466 1.1061486 4.2786002
-0.2097628 1.1522043 4.2493711
-0.20612822 1.1530441 4.2345271
-0.20628712 1.1585494 4.2252069
-0.20865737 1.188087 4.2214537
-0.20558715 1.2293342 4.2155957
-0.18645117 1.2314861 4.1664329
-0.20282282 1.2414925 4.1502423
-0.19468832 1.2725614 4.1111708
-0.17063747 1.2719539 4.083643
-0.18406866 1.293736 4.0623908
-0.20876229 1.3141632 4.0195541
-0.18806979 1.3256394 4.0352135
-0.21374588 1.3744185 4.0603614
-0.19185944 1.3839058 4.0469074
-0.18811868 1.3815075 4.0178986
-0.17987949 1.3945071 3.9958148
-0.17608482 1.3973407 3.9768078
-0.19470626 1.4482818 3.9660048
-0.17794318 1.4463786 3.908453
-0.16238886 1.457628 3.9128633
-0.17467333 1.4473141 3.8762212
-0.17673831 1.4909012 3.8292723
-0.19372259 1.4731975 3.8478038
-0.17442295 1.5021673 3.7824304
-0.17869273 1.5086694 3.7862222
-0.1765714 1.5169007 3.7491419
-0.15928592 1.5224947 3.7321911
-0.18267307 1.5459967 3.7282076
-0.15833174 1.5548943 3.6918421
-0.18325798 1.5850211 3.673089
-0.13080697 -1.3250842 3.1425443
-0.23931059 0.91630983 4.9935818
-0.23242383 0.94588512 4.9438734
-0.23035297 0.97690946 4.9218225
-0.23013049 0.94112134 4.7124319
-0.23585719 0.94625747 4.6894822
-0.2184587 0.99457479 4.6562138
-0.21225147 1.0008409 4.6204557
-0.21429934 1.028466 4.5933728
-0.21254067 1.0198681 4.5359483
-0.19607022 1.0658892 4.5083976
-0.2228834 1.0900896 4.4805689
-0.20789738 1.054755 4.3916812
-0.20318452 1.0980461 4.3590889
-0.1700999 1.1129965 4.328167
-0.18098921 1.1298553 4.3031187
-0.20213458 1.1312956 4.2542176
-0.19075243 1.1423143 4.2427659
-0.21189304 1.160482 4.2127557
-0.16954623 1.1841586 4.232614
-0.19271617 1.2265602 4.1946101
-0.20982914 1.2169724 4.1862531
-0.21042131 1.2613227 4.1341724
-0.19932777 1.2572398 4.1247687
-0.20093428 1.2533289 4.07339
-0.17229977 1.2658752 4.0673199
-0.18331221 1.2943221 4.0422716
-0.1886939 1.3301138 4.0479627
-0.18543357 1.3397679 4.0492034
-0.19997425 1.3562793 4.0718851
-0.20744048 1.3707881 4.0351143
-0.17773677 1.3795599 4.0024076
-0.1988482 1.4130592 3.9661677
-0.19780084 1.4108467 3.9586763
-0.19479895 1.4259666 3.940264
-0.17181811 1.4282813 3.9085793
-0.18217343 1.461439 3.8928409
-0.17139742 1.4703158 3.8465011
-0.16565084 1.4781781 3.8451016
-0.18668628 1.4916316 3.8185141
-0.17361727 1.5043935 3.7697077
-0.1743629 1.5293287 3.7735391
-0.17733169 1.5168573 3.736448
-0.16858213 1.5114231 3.7253942
-0.1568266 1.5633609 3.6932323
-0.15970178 1.5486761 3.6815286
-0.18136697 1.5462219 3.6465683
-0.21287492 0.90042269 5.0047712
-0.22846845 0.92429602 4.958643
-0.21482308 0.96389395 4.9196529
-0.2172603 0.93670148 4.731163
-0.20600019 0.95155716 4.7210822
-0.21911021 0.97403032 4.6707873
-0.20670412 0.98721528 4.6208172
-0.20244062 1.019297 4.5950794
-0.19061863 1.0200491 4.556241
-0.18533173 1.0504005 4.5309267
-0.18567328 1.0614185 4.4752054
-0.20028657 1.0618037 4.3910022
-0.17461641 1.1043655 4.34266
-0.200679 1.1043882 4.3305593
-0.18601403 1.1097621 4.3014598
-0.19091 1.1463253 4.2603159
-0.18437311 1.1517699 4.2509694
-0.17960335 1.1419734 4.2060485
-0.18823016 1.1763501 4.2478933
-0.16323417 1.1989352 4.2121329
-0.17486183 1.2129328 4.1934328
-0.19730146 1.2309362 4.1715655
-0.1926869 1.2565165 4.1381454
-0.16999583 1.2513096 4.1049271
-0.19508815 1.2759372 4.0711055
-0.17702621 1.2826424 4.0555763
-0.20607553 1.2925448 4.0254269
-0.17167944 1.3296189 4.0373979
-0.18994732 1.3472921 4.0517335
-0.17794977 1.3770988 4.0380073
-0.18426581 1.3977267 4.0396881
-0.18737257 1.4151921 3.9946041
-0.18693747 1.427068 3.9757895
-0.16140488 1.412971 3.940913
-0.18657479 1.4522185 3.922755
-0.1480682 1.4542307 3.879194
-0.17093486 1.4482021 3.8635249
-0.16601993 1.4777437 3.8471684
-0.16168952 1.4727476 3.8341081
-0.16439851 1.4959033 3.7956011
-0.16246784 1.4913324 3.7856679
-0.17744017 1.5060996 3.7480657
-0.16520138 1.5437452 3.7294402
-0.1592775 1.542785 3.6992714
-0.17382307 1.5611343 3.684979
-0.15305148 1.5750123 3.6551895
-0.14216898 -1.3157068 3.1000915
-0.20768176 0.93058383 4.9689164
-0.20254299 0.95315862 4.9207368
-0.18650676 0.93604743 4.7483315
-0.19233197 0.96059233 4.7317066
-0.20680456 0.99016184 4.6865902
-0.18858883 0.98713106 4.6335549
-0.21522596 1.0211449 4.602581
-0.16987783 1.0148984 4.570024
-0.18928413 1.0516777 4.5247073
-0.192573 1.065967 4.4832134
-0.18945052 1.0626668 4.397037
-0.17558981 1.0788012 4.3772459
-0.16213241 1.1003686 4.3508983
-0.17463733 1.1182189 4.3131652
-0.17154615 1.1082809 4.2829022
-0.17454931 1.1433887 4.2494144
-0.16964245 1.1339571 4.2193069
-0.18453212 1.1711349 4.235599
-0.18211088 1.1825525 4.2334151
-0.18849346 1.2135909 4.1889305
-0.18125752 1.2476789 4.1568718
-0.15617584 1.234103 4.1300592
-0.18234539 1.2593172 4.1046605
-0.17858015 1.2693542 4.0807862
-0.17205216 1.2730813 4.0550714
-0.18201195 1.3005151 4.0398083
-0.17429909 1.3390738 4.0120721
-0.18065864 1.3507519 4.0653548
-0.16285978 1.3779961 4.0485721
-0.16083397 1.3743051 4.032063
-0.17111082 1.4090575 3.9988501
-0.16330597 1.4153932 3.9590924
-0.15394299 1.4112247 3.9646678
-0.16859968 1.4362655 3.9290769
-0.16954926 1.4660536 3.8882878
-0.16438746 1.4757092 3.8851297
-0.15863113 1.4566641 3.857372
-0.12990949 1.4854671 3.8361273
-0.15837914 1.4969937 3.8118708
-0.15563951 1.5175954 3.793009
-0.16874719 1.5212603 3.7501879
-0.15845014 1.5280557 3.727644
-0.15733249 1.5665153 3.7199047
-0.16070077 1.573406 3.7005618
-0.15722373 1.5754911 3.6576154
-0.14005297 -1.3217161 3.1257432
-0.18647328 0.94332093 4.9788308
-0.20474747 0.94324732 4.9395785
-0.18416306 0.93147594 4.7663984
-0.19786347 0.95084774 4.7332997
-0.19213633 0.97744989 4.6956897
-0.20236512 1.0058608 4.6587954
-0.1738981 1.0109001 4.6116385
-0.20248765 1.0337863 4.5773482
-0.16982125 1.048303 4.5491605
-0.17413431 1.0577315 4.4922419
-0.16994846 1.0529968 4.4215975
-0.15802245 1.0788779 4.3851566
-0.19306427 1.0830913 4.3487535
-0.18261492 1.1081796 4.319171
-0.18639234 1.1104774 4.2818217
-0.14953242 1.1354532 4.2465916
-0.16380209 1.1494403 4.2166381
-0.16537708 1.1545018 4.2018332
-0.19240528 1.1993456 4.2201729
-0.18236333 1.19224 4.1983824
-0.1794177 1.2050402 4.1586189
-0.17663483 1.2342165 4.1487517
-0.17403796 1.2439075 4.1116204
-0.1552954 1.268021 4.0837202
-0.1635368 1.2852089 4.0604
-0.16868575 1.2908406 4.0440211
-0.14741248 1.3012004 4.025578
-0.19405997 1.3215356 4.049552
-0.16248047 1.3710757 4.0519838
-0.1738372 1.386103 4.0535493
-0.1474497 1.3733397 4.0046549
-0.16559681 1.4215863 3.9914708
-0.15956268 1.415022 3.9536586
-0.15131608 1.4440892 3.940599
-0.16197772 1.462785 3.8985949
-0.16576722 1.4739516 3.8802516
-0.15724964 1.4807088 3.8591599
-0.16260713 1.4684635 3.8479307
-0.15957105 1.4880853 3.8178303
-0.15149844 1.5032353 3.7924654
-0.16059411 1.5198047 3.7359231
-0.16403319 1.5347496 3.7462413
-0.15237153 1.5312096 3.7251494
-0.13687877 1.541242 3.6968586
-0.15538758 1.5563513 3.6773961
-0.13921598 1.5644786 3.6547842
-0.20017065 0.90557897 5.0054445
-0.21110804 0.92124265 4.9607711
-0.18807183 0.93520069 4.9133906
-0.18152444 0.9555307 4.744566
-0.17910349 0.95886582 4.6967459
-0.1714893 0.97858316 4.6573987
-0.17893563 0.99341935 4.6365747
-0.18042873 1.0172105 4.5959473
-0.17633036 1.0451784 4.5416832
-0.17425044 1.0402731 4.5196695
-0.18577716 1.0593735 4.4127245
-0.17105444 1.0679536 4.3903623
-0.16915479 1.0785533 4.3567138
-0.17150508 1.0697891 4.3334394
-0.17444226 1.1029698 4.2944117
-0.15964086 1.1190741 4.2570205
-0.16717689 1.1260966 4.2636371
-0.15021729 1.1684424 4.2211671
-0.17427696 1.1787333 4.2041569
-0.16554663 1.21496 4.2263408
-0.17812219 1.2152103 4.2050099
-0.15834123 1.2411609 4.1507053
-0.15317386 1.2524505 4.1255178
-0.15301895 1.2544438 4.0913615
-0.1637589 1.276629 4.0795979
-0.14345132 1.2899311 4.0341091
-0.16709548 1.3013712 4.0288682
-0.15737626 1.3309697 4.0542898
-0.14749555 1.3725272 4.0484629
-0.15852177 1.3774621 4.0585756
-0.1499391 1.3793988 4.0243244
-0.15045458 1.4036915 3.9775276
-0.16785924 1.3991503 3.9635952
-0.14951609 1.4207399 3.9227037
-0.15316339 1.4469172 3.9264448
-0.17581593 1.445991 3.8945072
-0.13301387 1.4621755 3.8707535
-0.15061627 1.4581472 3.8373947
-0.14251156 1.4821285 3.8303876
-0.15757649 1.4930303 3.7941933
-0.16165721 1.4990026 3.7599995
-0.13710719 1.5179284 3.7517045
-0.14072722 1.5304708 3.7283838
-0.1395372 1.5405893 3.7162316
-0.14439958 1.5545996 3.6998003
-0.14184424 1.5601674 3.6633496
-0.12391966 -1.305195 3.0645952
-0.17711551 0.92936045 4.9582601
-0.17962812 0.96136546 4.9123831
-0.17667715 0.93372768 4.7315745
-0.17527561 0.94238162 4.7045445
-0.19648312 0.97019154 4.6803923
-0.15726957 0.97762668 4.6376143
-0.16274995 1.0191337 4.6139855
-0.16809125 1.037022 4.6035523
-0.16590603 1.0387561 4.517004
-0.17108971 1.0310915 4.4434457
-0.1616834 1.0487654 4.4044127
-0.15416494 1.0761589 4.3635154
-0.17371464 1.1039079 4.36413
-0.16591659 1.1059618 4.3033285
-0.18136251 1.1299478 4.2930017
-0.14599869 1.1368104 4.2450857
-0.15207528 1.1549839 4.2172408
-0.16664396 1.1769464 4.1776361
-0.14793067 1.1870365 4.2031341
-0.14351325 1.2129078 4.1849761
-0.16407149 1.2213421 4.1688819
-0.17196146 1.2434024 4.1291881
-0.1483447 1.2530215 4.1168528
-0.1366352 1.2732272 4.0748472
-0.16148861 1.271634 4.072845
-0.14468418 1.2925706 4.0109839
-0.14960411 1.3163277 4.010993
-0.16002822 1.3311205 4.0170174
-0.1598396 1.3590806 4.038981
-0.12085753 1.3758212 4.0296316
-0.15424314 1.4028392 4.0050426
-0.14034554 1.4088862 3.9680068
-0.14295955 1.4221848 3.951504
-0.15426689 1.4341276 3.9190767
-0.16268983 1.4438288 3.9086335
-0.13842689 1.4553707 3.8709214
-0.15347871 1.481084 3.8480055
-0.1428528 1.4778173 3.8285489
-0.14827836 1.4928963 3.807575
-0.1264361 1.5102935 3.7880056
-0.1234148 1.5224174 3.7544813
-0.15627643 1.5035191 3.7460063
-0.14299305 1.5387512 3.7233298
-0.13141513 1.5476357 3.6846268
-0.14525118 1.5602908 3.6653156
-0.11021218 -1.3219019 3.1242111
-0.17040254 0.92047572 4.9701724
-0.18605977 0.92947376 4.9394865
-0.17262879 0.92239118 4.7581162
-0.17313473 0.94581646 4.7284575
-0.16582069 0.96118957 4.6864352
-0.1627446 0.9764266 4.6732459
-0.15832397 1.0009577 4.6153269
-0.14519788 1.0233903 4.5717216
-0.16022167 1.0253879 4.5663528
-0.15328862 1.0550112 4.4468818
-0.13865735 1.05898 4.4009709
-0.14822602 1.0800275 4.3950844
-0.14660423 1.0961707 4.3617792
-0.14781058 1.1170256 4.3167157
-0.14779799 1.1158766 4.2726321
-0.15801835 1.1356102 4.2706947
-0.14054473 1.1575298 4.2228932
-0.15683614 1.1699545 4.1820455
-0.14187883 1.1677076 4.2242227
-0.1449257 1.2246854 4.1782117
-0.14656495 1.2058327 4.1760516
-0.13857421 1.2490506 4.1489139
-0.14853205 1.2399228 4.1234231
-0.1350383 1.2616303 4.094552
-0.15226729 1.2957853 4.0758381
-0.13121617 1.2781441 4.0371528
-0.14162159 1.3076106 3.9911084
-0.13405447 1.3403233 4.0102005
-0.13434929 1.3634199 4.0401602
-0.13385427 1.3744756 4.0488153
-0.13582952 1.3861203 4.015533
-0.14806576 1.4168508 3.9818566
-0.12785332 1.4017019 3.9391558
-0.14761579 1.4279704 3.9346159
-0.13099547 1.443624 3.9067101
-0.14334324 1.4340277 3.8902087
-0.12419891 1.4850171 3.855649
-0.1236669 1.4783773 3.8423803
-0.12968899 1.4751837 3.7855911
-0.11597178 1.493113 3.7901547
-0.13604604 1.5110543 3.7703857
-0.13633122 1.5121017 3.7393143
-0.12297788 1.5304641 3.702333
-0.12877512 1.5437399 3.7018111
-0.12534994 1.5518177 3.6814122
-0.11817159 1.5559961 3.6445022
-0.1613698 0.90147775 4.9995255
-0.17655958 0.94913095 4.9476085
-0.15728749 0.91616786 4.768609
-0.1547973 0.94481206 4.7365999
-0.15126327 0.95557237 4.6941376
-0.15131405 0.99050409 4.6420274
-0.14792602 0.99630564 4.6239896
-0.15805812 1.0181228 4.6085267
-0.15527962 1.0527862 4.5561399
-0.16725028 1.0482496 4.466897
-0.13946152 1.0605673 4.4401245
-0.15177709 1.0748153 4.3834968
-0.12943548 1.0997298 4.3588901
-0.1592208 1.0883182 4.3314414
-0.14477533 1.1220351 4.3128099
-0.1342819 1.1202203 4.2782497
-0.14501528 1.146621 4.22019
-0.1440738 1.1493225 4.2096462
-0.14185093 1.1701121 4.1971517
-0.14733119 1.2021536 4.208612
-0.14028017 1.2290661 4.1926661
-0.14393108 1.2434546 4.1615543
-0.12675804 1.2492114 4.1210685
-0.12783958 1.2568913 4.1260242
-0.14935543 1.2848611 4.0757408
-0.12715019 1.2943822 4.0351715
-0.10363492 1.3099276 4.0221395
-0.16156706 1.3281676 4.0046706
-0.1269875 1.3435286 4.0341477
-0.14923845 1.3841704 4.04529
-0.12425097 1.3895806 4.0216436
-0.13819467 1.3871645 4.0004888
-0.12156378 1.4205483 3.9545541
-0.13793546 1.4326658 3.935122
-0.12510215 1.4426175 3.9133365
-0.1202708 1.4488527 3.8968563
-0.11695836 1.4655914 3.8615761
-0.11076641 1.479093 3.8416736
-0.13084941 1.4856238 3.8328502
-0.11858501 1.5069951 3.796927
-0.14045857 1.5127169 3.7748535
-0.11803365 1.5202776 3.7472045
-0.13059385 1.5233136 3.726737
-0.13450342 1.5359373 3.6914792
-0.11323643 1.5512379 3.6770558
-0.11226108 1.5707039 3.6621015
-0.088010475 -1.2825574 3.0549603
-0.1668283 0.92406756 4.9553189
-0.15390825 0.91568816 4.7842422
-0.15459113 0.95486712 4.7437258
-0.15596825 0.96558666 4.7234101
-0.1415741 0.97008753 4.654778
-0.14722455 0.99686885 4.6260085
-0.13167448 1.0076966 4.6153283
-0.14837737 1.0405556 4.5686269
-0.14010327 1.0085608 4.4608378
-0.13787127 1.052316 4.4407592
-0.13559891 1.0548095 4.3961096
-0.12855054 1.0723145 4.3726611
-0.13775945 1.1002631 4.3373423
-0.12815185 1.1125563 4.3143501
-0.13300991 1.1176502 4.2825737
-0.1451627 1.1219193 4.2588015
-0.12960908 1.1519405 4.2019262
-0.14094517 1.1676863 4.2181644
-0.13618495 1.1979899 4.1869755
-0.14018053 1.2022525 4.1907849
-0.13741845 1.2316986 4.1566505
-0.12407826 1.2570238 4.1295314
-0.13422447 1.2745744 4.0909529
-0.1147763 1.2798041 4.0852981
-0.13300389 1.2756684 4.0470977
-0.12095367 1.2927617 4.0267076
-0.13001017 1.3052074 3.9967856
-0.13603391 1.3409058 4.0146947
-0.12210547 1.3552179 3.9959731
-0.14063996 1.3866589 4.0316663
-0.13366829 1.378956 4.0090823
-0.14228833 1.4028602 3.9958541
-0.14553232 1.4330817 3.9425035
-0.11526672 1.432688 3.9115555
-0.12559772 1.4387065 3.9173849
-0.12487169 1.4549334 3.8732064
-0.13672465 1.4607985 3.8482144
-0.13298725 1.4830492 3.8184497
-0.13618028 1.5135123 3.8065951
-0.1499716 1.5020574 3.7965879
-0.10837152 1.5062953 3.7746887
-0.1302928 1.5206146 3.7473164
-0.11193182 1.5543232 3.7042227
-0.11145087 1.5513241 3.6642315
-0.112928 1.5731744 3.6698408
-0.092319831 -1.3527715 3.2317278
-0.13995209 0.92053586 4.9911227
-0.15219194 0.91792125 4.8134265
-0.13942118 0.93197149 4.7699428
-0.13024627 0.94022077 4.7396193
-0.13835596 0.97117478 4.6997848
-0.15154611 0.98432988 4.6686502
-0.13214593 1.004302 4.6373963
-0.13653457 1.012297 4.5900402
-0.13014115 1.0364888 4.4969764
-0.1371713 1.033429 4.4624753
-0.13039643 1.0589129 4.432055
-0.13116172 1.0874972 4.3899918
-0.11373541 1.0744013 4.3616071
-0.11553372 1.1130832 4.3280625
-0.13129283 1.1144679 4.281086
-0.13667463 1.1363102 4.2702065
-0.11459401 1.1588781 4.2392092
-0.12103284 1.1700075 4.2066584
-0.11310265 1.1765888 4.1857843
-0.12274583 1.2039444 4.1874371
-0.13276652 1.2323725 4.2039495
-0.10706766 1.2216498 4.1452417
-0.13558793 1.2467667 4.1170826
-0.12440159 1.2672502 4.1063199
-0.11960616 1.2759593 4.0748229
-0.10147477 1.2917703 4.0398731
-0.10789578 1.2848362 4.0196037
-0.10822756 1.3312926 3.9904561
-0.12940268 1.330426 4.004622
-0.11234578 1.3632869 4.0074396
-0.10594718 1.3963343 4.0268617
-0.1199099 1.4014685 3.9907122
-0.086932331 1.4077932 3.9680099
-0.10589332 1.4292892 3.9483113
-0.10448299 1.4307657 3.9060931
-0.12931253 1.4431298 3.8892651
-0.10552795 1.4472961 3.8580751
-0.11697238 1.4803394 3.8311741
-0.11758436 1.4781277 3.8159201
-0.10392316 1.4800026 3.7914035
-0.10720011 1.4959213 3.7800019
-0.12158965 1.5148134 3.7407508
-0.11910533 1.5317076 3.7281704
-0.094380163 1.5333368 3.6972647
-0.10996523 1.5487626 3.6737006
-0.1064102 1.5716169 3.6668096
-0.087718107 -1.331071 3.1175714
-0.13263047 0.9040705 4.8368139
-0.12869127 0.91862261 4.7934933
-0.13965763 0.90723872 4.7545652
-0.13589889 0.94367993 4.7257166
-0.13905419 0.95552611 4.6753683
-0.1347955 0.96638918 4.6585388
-0.12673642 0.99310803 4.6260586
-0.13326526 1.0029809 4.5218291
-0.12485051 1.0092499 4.4998646
-0.13600475 1.0524588 4.4471207
-0.1414337 1.0678287 4.4116473
-0.12290142 1.0693992 4.3754144
-0.12358645 1.093925 4.3588362
-0.1293651 1.1001639 4.3203244
-0.11983693 1.1188853 4.2911668
-0.11962289 1.1308179 4.2482538
-0.12637185 1.1498973 4.21034
-0.1215539 1.169017 4.1995339
-0.12774184 1.1755546 4.1952596
-0.11779931 1.2040421 4.1786146
-0.10927356 1.2370915 4.184453
-0.12878342 1.2453958 4.1346283
-0.11464895 1.2564576 4.123733
-0.10815179 1.2572143 4.09268
-0.10728648 1.2708977 4.0778651
-0.11664961 1.3021631 4.0416121
-0.11201822 1.3005202 4.0108533
-0.09484145 1.3360654 3.9992473
-0.099982962 1.3395289 4.01544
-0.12369876 1.3803817 4.0078464
-0.11904032 1.3871411 4.0085106
-0.11195366 1.4040427 3.985297
-0.1030435 1.4354978 3.9602308
-0.12743594 1.4419312 3.9373717
-0.11208868 1.4372554 3.9122434
-0.10076762 1.4691641 3.9084156
-0.10360157 1.4658836 3.8606455
-0.10163104 1.4897436 3.8337934
-0.11742885 1.5027969 3.8208861
-0.10127838 1.5019546 3.8043821
-0.09948951 1.5227091 3.7678866
-0.10614754 1.536393 3.7356105
-0.099144302 1.510318 3.7315731
-0.093688756 1.5408934 3.7096589
-0.085985504 1.5790476 3.6633401
-0.098213017 1.5584627 3.65042
-0.071239486 -1.2737089 3.0678349
-0.11230779 0.90648121 4.8260221
-0.12996492 0.92977053 4.8262992
-0.11687636 0.93024331 4.746788
-0.12747984 0.95156407 4.7327437
-0.12509002 0.96715081 4.6885786
-0.12064249 0.97771865 4.6652908
-0.11969551 0.99813426 4.6040163
-0.11957945 1.0178242 4.5150895
-0.13524577 1.0207957 4.4760633
-0.13841906 1.0403193 4.4601851
-0.12882797 1.0549377 4.4269905
-0.10857838 1.0672235 4.3786397
-0.10511941 1.0724939 4.3379378
-0.1182522 1.1104498 4.3284698
-0.11030142 1.1119744 4.2864604
