# .PCD v0.7 - Point Cloud Data file format
VERSION 0.7
FIELDS x y z
SIZE 4 4 4
TYPE F F F
COUNT 1 1 1
WIDTH 1443
HEIGHT 1
VIEWPOINT 0 0 0 1 0 0 0
POINTS 1443
DATA ascii
0.10152842 -0.62439513 3.1976891
0.088600226 -0.62010634 3.1964822
0.084290288 -0.63120657 3.2766969
0.098450094 -0.62875593 3.2315488
0.027183704 -0.55993867 3.2347875
0.10627051 -0.55624789 3.2652912
0.10966079 -0.52503872 3.2797637
0.11283948 -0.52993041 3.2878211
0.073566981 -0.49602646 3.3057017
0.089072578 -0.49359676 3.2972918
0.10837803 -0.47068331 3.2734587
0.084490277 -0.46927965 3.3086147
0.10082292 -0.47979537 3.3086541
0.10926539 -0.41917196 3.3174381
0.081354327 -0.4528859 3.3412814
0.10455442 -0.41264305 3.338661
0.085731387 -0.4256565 3.3679292
0.084179915 -0.34061238 3.3573978
0.086361445 -0.3717739 3.3654022
0.099239357 -0.32607988 3.3422942
0.11516282 -0.37169105 3.3809352
0.092087306 -0.32114476 3.3663657
0.091375574 -0.26775426 3.3717849
0.070292965 -0.25474918 3.4244637
0.1000515 -0.23420444 3.3737745
0.10105695 -0.23692273 3.41187
0.087230764 -0.20342939 3.4595997
0.097107098 -0.22180955 3.4240854
0.086104676 -0.19429344 3.3967748
0.10664541 -0.16395119 3.4286051
0.12730467 -0.15451351 3.4616828
0.10197341 -0.11253045 3.4693778
0.064851403 -0.10368121 3.4863541
0.10561371 -0.11254986 3.4884703
0.10203485 -0.05536757 3.4840941
0.10589479 -0.025558222 3.5061734
0.1092753 -0.028838819 3.5342655
0.090678044 -0.0015923232 3.5177753
0.087464809 0.048105795 3.5228312
0.093990438 0.041786809 3.5446794
0.10907435 0.068136252 3.5535183
0.1177674 0.088021994 3.5700917
0.12603176 0.10552308 3.5690753
0.10592538 0.095588982 3.6015697
0.11146125 0.13665424 3.5718789
0.063890085 0.12112574 3.6126957
0.10055152 0.19925953 3.6150815
0.1145832 0.19706768 3.614306
0.087472372 0.22180392 3.6048234
0.091743194 0.22208694 3.6163888
0.069466807 0.24003337 3.6250918
0.13468373 0.26228791 3.643137
0.10261603 0.26428655 3.654124
0.094712347 0.3325069 3.6382279
0.10460342 0.34582263 3.7068877
0.088298917 0.3985413 3.7266006
0.11271551 0.40339467 3.687233
0.11042234 0.40018782 3.7291338
0.081018701 0.40919062 3.7198462
0.10936496 0.45098972 3.7209296
0.11341766 0.44288796 3.7499368
0.11603083 0.50410897 3.7107139
0.077683061 0.5187633 3.7456779
0.10917836 0.51117301 3.7860162
0.11154969 0.54591078 3.7903013
0.10485826 0.56619954 3.7868874
0.11843157 0.5958159 3.7737463
0.097663805 0.58940083 3.8050113
0.13767296 0.6505968 3.8620799
0.09543144 0.65389174 3.8343754
0.088821478 0.67927402 3.8322544
0.10632636 0.66870815 3.82528
0.068251424 0.72334611 3.8503315
0.10072426 0.73494035 3.8732731
0.1437095 0.738392 3.9016016
0.1115696 0.77806067 3.9052229
0.12975067 0.86061674 3.9012153
0.10597243 0.83796346 3.9332955
0.14057295 0.8560217 3.9232931
0.10110612 0.88844734 3.8935323
0.13364747 0.88699943 3.9126832
0.11778487 0.93533623 3.9358628
0.093009867 0.97996008 3.9683764
0.089586049 1.015992 3.9517858
0.089725122 1.0086588 3.9970009
0.063017085 1.0673277 4.0303688
0.066002756 1.0368401 3.9994981
0.10085743 1.1094174 4.0242796
0.11555549 1.0908231 4.0371761
0.11576474 1.1638834 4.0735092
0.12135657 1.1234924 4.0831547
0.13643385 1.191672 4.0628304
0.1504482 1.2054863 4.0631847
0.12825614 1.2087448 4.0626831
0.13196167 1.2479943 4.0445247
0.099075474 1.22716 4.0083227
0.14199662 1.2512143 3.9986606
0.065529041 1.2806801 3.9625788
0.11872692 1.3060995 3.941761
0.10634221 1.2906705 3.8822105
0.098902598 1.3232491 3.899611
0.13280462 1.348691 3.8242538
0.11804886 1.3218324 3.8607419
0.094023451 1.3645149 3.8593693
0.096450746 1.3805174 3.8378727
0.10815515 1.4184809 3.8629875
0.087772526 1.4136055 3.7964294
0.088234156 1.4052659 3.7877812
0.14106403 1.417475 3.7358441
0.090693451 1.4371464 3.7130487
0.07474193 1.4690807 3.7149642
0.12271873 1.4866924 3.7128704
0.10799059 1.4892484 3.7338321
0.14973591 1.5258514 3.7422969
0.088072561 1.5556166 3.6967297
0.12083453 1.5435445 3.6719193
0.0866706 1.5728167 3.6658545
0.065965913 -1.3827087 3.2510214
0.12657042 -1.2631674 3.0551915
0.068251587 -1.1833005 2.8071871
0.0844246 -1.1970748 2.9285302
0.090438686 -1.1887963 2.927062
0.091042712 -1.1679834 2.9670365
0.099680036 -1.1532481 2.9966412
0.095014833 -1.198442 2.9979641
0.099408805 -1.0969582 2.992821
0.10982917 -1.1398296 2.9596295
0.088449091 -1.116274 2.9903665
0.10592282 -1.1291332 3.0332427
0.099866033 -1.0683767 2.9763176
0.086781003 -1.0482929 3.0667701
0.11964632 -1.0348885 3.0313706
0.076471969 -1.048619 3.0456066
0.053154774 -1.0534374 3.0472012
0.079922929 -1.0014108 3.0454566
0.086569369 -0.99896359 3.0385439
0.098365761 -0.98353666 3.0619714
0.089968823 -0.94008797 3.0652618
0.11157771 -0.94770247 3.0659168
0.060374033 -0.92590815 3.0804305
0.11977872 -0.91232485 3.1001029
0.081609532 -0.93564427 3.0858176
0.083901726 -0.88392949 3.0939829
0.12572388 -0.87762725 3.0768876
0.094942383 -0.88576263 3.1109383
0.10544901 -0.87194842 3.1129267
0.1022578 -0.84152961 3.1481454
0.083916068 -0.81690329 3.1224551
0.076596946 -0.81381726 3.1111972
0.092280418 -0.81527501 3.1557016
0.12457333 -0.77611554 3.1453421
0.13681337 -0.74265552 3.1719863
0.085968636 -0.72153044 3.1698904
0.089355551 -0.73376054 3.1621175
0.095808916 -0.72575235 3.2158427
0.11961719 -0.68570691 3.2196271
0.093569458 -0.6821593 3.1884644
0.093269266 -0.64928466 3.2121339
0.11026916 -0.64572722 3.1969023
0.11017274 -0.65528035 3.2481871
0.084859088 -0.61792314 3.2499533
0.085189603 -0.61146581 3.2292154
0.12601942 -0.58498001 3.2318528
0.071318455 -0.57670999 3.2189116
0.098644406 -0.55186844 3.273279
0.099362895 -0.51399356 3.2458446
0.10629649 -0.49647433 3.259485
0.074177772 -0.47557563 3.2967186
0.068141326 -0.49426547 3.285291
0.091582932 -0.4718301 3.2728052
0.12825996 -0.47627383 3.3350654
0.079333894 -0.40838248 3.3153896
0.10902713 -0.45370227 3.3263266
0.057000332 -0.40325567 3.326453
0.10471987 -0.36709952 3.2911668
0.096552595 -0.36359143 3.3361545
0.11156879 -0.34732813 3.3103549
0.12619397 -0.31638533 3.3369932
0.10149717 -0.29463843 3.3540034
0.092232808 -0.28375256 3.389549
0.099047944 -0.25174299 3.4205441
0.1111583 -0.26766422 3.3969264
0.067453027 -0.23149244 3.3960075
0.098107278 -0.253766 3.4002986
0.082847163 -0.19802453 3.4123073
0.11448924 -0.21861315 3.4424016
0.075988248 -0.21006207 3.4385948
0.10905259 -0.13993284 3.4520552
0.12593885 -0.10996712 3.4249067
0.11091095 -0.13543405 3.4498527
0.12875132 -0.085781887 3.459986
0.091384888 -0.092293054 3.4971848
0.10261039 -0.099804208 3.4698405
0.11071295 -0.039889507 3.473876
0.089062251 -0.017183999 3.4777136
0.087103568 -0.033501677 3.4880764
0.12499422 -0.0020438368 3.4780149
0.1277791 0.048107222 3.5430422
0.13509475 0.049411956 3.5442226
0.080947667 0.057019934 3.5695579
0.10395643 0.070183963 3.5440207
0.1240375 0.10729436 3.5734138
0.11203373 0.14335337 3.5692568
0.12804615 0.10288951 3.5730596
0.11721464 0.14808147 3.5489414
0.12559073 0.15050116 3.5761218
0.13543972 0.2121004 3.6008909
0.12344319 0.26538613 3.6036606
0.088919923 0.23611374 3.6021633
0.099179529 0.29338324 3.6134315
0.097209282 0.30513793 3.6441996
0.10682051 0.3151269 3.6211362
0.078589737 0.30431232 3.6672163
0.1076003 0.33578724 3.678246
0.11870957 0.33170652 3.6784019
0.11276795 0.35171929 3.7042208
0.08478535 0.42511344 3.6692717
0.11020325 0.44411641 3.7122767
0.10666555 0.39490193 3.7246056
0.11979583 0.52691257 3.7297342
0.1266192 0.49284035 3.7531824
0.075944714 0.51499844 3.7620676
0.12110478 0.52761275 3.716609
0.13060796 0.54983896 3.7630782
0.097689167 0.54482698 3.7736661
0.10328005 0.61690134 3.806268
0.092134133 0.63427925 3.7563989
0.081250995 0.62119311 3.8015366
0.11679063 0.68113685 3.8767011
0.15719061 0.67755288 3.82465
0.10553094 0.70139259 3.8098376
0.11422811 0.71962649 3.8631814
0.11065831 0.79784125 3.8632562
0.11297004 0.77805948 3.8917415
0.10894851 0.80701947 3.8542256
0.068688035 0.82845229 3.9032903
0.12704112 0.88444251 3.922271
0.10721998 0.88131428 3.9126797
0.11571294 0.91350257 3.9474146
0.1016179 0.89471662 3.9591782
0.089904159 0.96740496 3.9453087
0.13948542 1.0156153 3.9594464
0.11445111 0.96846646 3.9623799
0.11013372 1.0327333 4.0110698
0.14769381 1.0503081 4.0023375
0.130082 1.1134925 3.995472
0.12523726 1.1026136 4.0269356
0.12645347 1.1210486 4.0478144
0.10979431 1.135499 4.0318327
0.11055963 1.1553848 4.0491014
0.15442871 1.2074505 4.0936565
0.14204811 1.2265264 4.058744
0.13786329 1.2605556 4.0087557
0.10412727 1.2347863 4.0124331
0.11071092 1.2263174 3.9773507
0.11186079 1.284475 3.929882
0.12845275 1.2970229 3.9488423
0.13938634 1.2944204 3.9079189
0.084623881 1.3104467 3.8831861
0.12873769 1.3114111 3.8388221
0.11345635 1.3519151 3.873096
0.094954275 1.3907638 3.8857114
0.069844797 1.3454326 3.8714194
0.088949874 1.3922127 3.8152733
0.092137069 1.4378021 3.7846363
0.1078211 1.4071697 3.7797799
0.11774024 1.4106812 3.7461348
0.1265125 1.4383267 3.738508
0.10902582 1.4892005 3.6771026
0.10433156 1.4968889 3.6938322
0.097265072 1.5021647 3.7428091
0.093656585 1.4773706 3.7279634
0.10200316 1.533752 3.6962006
0.094018891 1.5531235 3.6891372
0.12615153 1.5576807 3.672653
0.11014183 -1.3674018 3.2157345
0.10356464 -1.2743293 2.9664497
0.10297554 -1.135667 2.8547931
0.059398171 -1.2099495 2.9576049
0.098076187 -1.1615303 2.9791291
0.079537049 -1.1582714 2.9444492
0.062623568 -1.1363631 2.9722867
0.083303615 -1.1518817 2.9928629
0.075259864 -1.1603436 2.9804068
0.081389666 -1.1192579 2.9472892
0.097825386 -1.1128429 2.9968491
0.062376056 -1.1284994 2.9657478
0.092462577 -1.0599933 3.0130498
0.12346397 -1.0869638 2.9897981
0.1162689 -1.0552857 3.0446846
0.10995307 -1.0390674 3.0278015
0.099005371 -1.0470028 3.0276723
0.11778466 -1.0061753 3.0429084
0.10049 -1.0292395 3.0205178
0.10718887 -0.96544546 3.0415845
0.058738042 -0.97401839 3.0496175
0.10196412 -0.99511355 3.0686429
0.12211961 -0.95282054 3.0722966
0.10195181 -0.89920276 3.0654352
0.10033022 -0.9519406 3.0714216
0.064044416 -0.87077761 3.100651
0.07744924 -0.87338507 3.0817468
0.092568986 -0.86889017 3.0952506
0.14545751 -0.88396537 3.1066923
0.12826636 -0.82228553 3.1252868
0.11928576 -0.81619537 3.1170642
0.10049582 -0.83274359 3.1042202
0.10153833 -0.78463781 3.1286299
0.10441992 -0.75228405 3.0840905
0.075347468 -0.7688536 3.1356499
0.0657368 -0.75644159 3.1788037
0.12976545 -0.71064156 3.1316469
0.083959989 -0.72605771 3.1854713
0.082145989 -0.69491363 3.1701186
0.12137242 -0.65974516 3.159843
0.12532166 -0.66453356 3.2176974
0.092087455 -0.66021866 3.1847436
0.10969395 -0.64147538 3.2236662
0.086075082 -0.65902346 3.2380764
0.13406703 -0.59999818 3.2367961
0.094568908 -0.55710363 3.2584176
0.10757089 -0.59175211 3.2396758
0.1049628 -0.53099263 3.2491257
0.098521106 -0.52713501 3.2759142
0.11566052 -0.5288642 3.2843928
0.10323714 -0.49886626 3.2824717
0.11932001 -0.4892306 3.2626939
0.088061899 -0.47658896 3.2765133
0.11487458 -0.44288141 3.316994
0.089033164 -0.39983675 3.2877808
0.11218924 -0.43033659 3.29444
0.067061797 -0.41014138 3.3149617
0.11007509 -0.34710521 3.3425181
0.10901241 -0.34491941 3.2718565
0.10869307 -0.35139337 3.3275163
0.1225865 -0.32895732 3.3155818
0.13088289 -0.30759615 3.3292484
0.15453535 -0.27878463 3.3200464
0.11340623 -0.29197696 3.3473938
0.10773969 -0.2503857 3.387367
0.10833109 -0.24205469 3.3966002
0.09673433 -0.2353501 3.3757362
0.11391166 -0.24015334 3.3931415
0.10223847 -0.18631501 3.3947642
0.10903822 -0.16598064 3.44978
0.13018148 -0.13035002 3.4549387
0.081263974 -0.13288368 3.3936362
0.094309181 -0.10882361 3.3978546
0.071767621 -0.1315266 3.4422896
0.088475786 -0.086079068 3.4977505
0.11422565 -0.032687534 3.4828782
0.14754286 -0.083199143 3.4667745
0.10127861 -0.0097351409 3.5062129
0.10809586 -0.015636899 3.5037258
0.096383423 0.0042779953 3.4959872
0.084289163 0.02531988 3.5293202
0.10782398 0.015537314 3.5535488
0.12182686 0.094040997 3.5133004
0.10824943 0.09461236 3.5477791
0.13809827 0.12476112 3.5425296
0.12581004 0.11708563 3.5714118
0.08106713 0.15339905 3.5616381
0.10962963 0.17829989 3.6108482
0.11826495 0.15273423 3.5613537
0.13533962 0.21953854 3.6069622
0.11036304 0.18987086 3.6372347
0.095998414 0.27522433 3.6052654
0.10709347 0.26284498 3.6138973
0.13115452 0.23784818 3.6455843
0.11716163 0.29833511 3.607621
0.08811672 0.33326316 3.6600084
0.12169426 0.35875911 3.6721921
0.10535699 0.34688383 3.6880167
0.099248976 0.39259824 3.6421728
0.14703333 0.42572603 3.6814027
0.12244719 0.40825322 3.6923141
0.10496768 0.46987128 3.7050848
0.1373246 0.45294249 3.6955488
0.13379182 0.48629874 3.7287521
0.079132721 0.53517824 3.770551
0.13437806 0.5430789 3.7424145
0.13641357 0.56143379 3.763943
0.12074369 0.57214576 3.7758687
0.10358324 0.61606741 3.7822335
0.11369205 0.62891275 3.7792361
0.12956989 0.62103236 3.8037944
0.11541843 0.66923827 3.8141282
0.13764663 0.70284104 3.8160877
0.11222362 0.72255558 3.8177624
0.13880254 0.75789815 3.8435535
0.10343024 0.75453228 3.8840346
0.14453511 0.81334114 3.8672516
0.10870946 0.84042525 3.8809578
0.10054511 0.85609055 3.8859053
0.11114758 0.85256779 3.90537
0.12139869 0.88631743 3.9003599
0.13303465 0.89774865 3.9518518
0.10084128 0.92049962 3.9621356
0.11852282 0.92777014 3.9325352
0.16070198 0.98420656 4.0073857
0.11545626 1.0000218 3.9741521
0.11786597 1.0259537 3.9688418
0.11744765 1.0673456 3.9828932
0.083943129 1.0345995 3.9815955
0.15832181 1.0738389 4.0109611
0.091368683 1.1271847 4.0400405
0.11620402 1.1588212 4.0318155
0.12666799 1.2289209 4.04812
0.13968664 1.2218173 4.0480361
0.12965931 1.2456565 4.0437722
0.12958257 1.2107607 4.0487394
0.091672562 1.2444 4.0005097
0.097100616 1.2468133 4.005044
0.098657236 1.2701598 3.9356914
0.11565298 1.2891257 3.9092557
0.11032034 1.3111377 3.8891943
0.12099212 1.2968146 3.8785114
0.1134966 1.329392 3.8481705
0.11252339 1.3981718 3.8557291
0.14032856 1.401813 3.9069192
0.11824149 1.3837763 3.8644497
0.13501026 1.4211578 3.830482
0.10046582 1.4070386 3.808213
0.13130163 1.4110953 3.7816339
0.088340826 1.4303777 3.7348244
0.11141646 1.4469303 3.7004881
0.11837695 1.4561285 3.7250297
0.11923472 1.4177365 3.7082276
0.15505813 1.5001872 3.718281
0.14271025 1.521808 3.6953187
0.096841313 1.5371951 3.7338829
0.13001037 1.5665668 3.6832631
0.12477351 1.5766922 3.6852982
0.1079956 -1.3970159 3.2308786
0.074854143 -1.2702614 3.0325108
0.093990065 -1.2045623 2.8197079
0.089226529 -1.1711725 2.8974683
0.10757018 -1.178237 2.9509068
0.082658447 -1.2001574 2.9526196
0.077011183 -1.1868105 2.9601159
0.086551368 -1.104578 2.9682357
0.1031803 -1.145388 2.9669719
0.10136282 -1.1345367 2.9796607
0.11061423 -1.1295862 3.0107126
0.10046225 -1.0934421 2.9681275
0.12017457 -1.0786364 3.0199482
0.10616139 -1.0367448 2.9910996
0.10017196 -1.0816905 3.0097265
0.098376356 -1.0426923 3.0098405
0.11406453 -1.0454018 3.0048351
0.082367644 -1.0104014 3.0310135
0.075959891 -1.019015 3.0530069
0.096313551 -0.99311543 3.036011
0.093639188 -0.96064311 3.0183318
0.10837347 -0.98177236 3.0431821
0.091667317 -0.93276089 3.0496082
0.091874041 -0.94314706 3.0809114
0.12018214 -0.8870365 3.0669069
0.10214084 -0.87569237 3.0798278
0.11458626 -0.85243082 3.068538
0.11131889 -0.84609157 3.0783782
0.10374694 -0.84858811 3.103986
0.10108645 -0.85326052 3.1106455
0.093790665 -0.83787388 3.0880969
0.11073753 -0.78873587 3.1190119
0.098409951 -0.77485275 3.1015713
0.11515485 -0.7779941 3.1095686
0.12549633 -0.76119351 3.1751678
0.10396854 -0.71781659 3.1325731
0.12203004 -0.7078982 3.1406207
0.095052466 -0.65740442 3.1570952
0.10229252 -0.72883165 3.160517
0.08149831 -0.6799016 3.1503592
0.10001373 -0.67136413 3.1875749
0.10467836 -0.66290551 3.1839864
0.11649864 -0.61430627 3.1868796
0.09518636 -0.61866575 3.1912048
0.12675187 -0.66177416 3.2238519
0.085355118 -0.595173 3.2196414
0.13061443 -0.59741753 3.2056811
0.12164847 -0.53442234 3.2266717
0.11098689 -0.51282507 3.2242885
0.096286431 -0.51185691 3.2129035
0.078648806 -0.49299139 3.2563355
0.13737515 -0.46880922 3.2643979
0.12328648 -0.43494067 3.2617419
0.095030062 -0.42002138 3.2769177
0.14266893 -0.44645742 3.2961574
0.074645162 -0.42968681 3.3008895
0.12159389 -0.41414833 3.3139338
0.099998496 -0.4044129 3.3188989
0.12687145 -0.38947013 3.3018985
0.11455583 -0.3372443 3.3372743
0.13000284 -0.35596088 3.3174002
0.13046488 -0.31637517 3.3559709
0.092212796 -0.29304251 3.3161447
0.10325695 -0.28918412 3.3410907
0.10096326 -0.22779484 3.3528388
0.088978693 -0.24787085 3.3978078
0.11114897 -0.21964371 3.4127998
0.15670232 -0.20229901 3.3998959
0.11712686 -0.19995506 3.39359
0.10270164 -0.16614732 3.422533
0.10837177 -0.18433604 3.4480064
0.12927406 -0.18990874 3.377383
0.099476859 -0.10388845 3.4316893
0.1146245 -0.082799777 3.4488282
0.11565533 -0.10447325 3.4453132
0.11678432 -0.046359599 3.4449799
0.12810248 -0.034485579 3.416641
0.10152027 -0.032573942 3.4336236
0.11983474 -0.0079303244 3.5050035
0.095121972 -0.0048484206 3.494427
0.12701409 0.056571998 3.4852495
0.17192763 0.057193249 3.5122566
0.082081154 0.092920452 3.5290499
0.11071049 0.097913563 3.5400271
0.14066881 0.10449119 3.5215642
0.10657494 0.11353898 3.4933441
0.10520122 0.15096213 3.5313547
0.12802075 0.19756272 3.5862148
0.13714477 0.17804198 3.5438414
0.14087735 0.21907952 3.5974855
0.1600268 0.2203823 3.5997758
0.12477835 0.2541973 3.5856445
0.12019155 0.27871171 3.5777559
0.1345398 0.27060637 3.6442583
0.13403949 0.29631487 3.6020744
0.089926615 0.30399984 3.593868
0.12552139 0.33980992 3.6923795
0.12410873 0.35718605 3.6301568
0.1103433 0.38331807 3.6770215
0.11784632 0.40489885 3.6615734
0.13751285 0.43392664 3.6819069
0.12167878 0.394411 3.6932311
0.091486201 0.44901234 3.6970999
0.10052351 0.50562638 3.7347488
0.11362991 0.51308239 3.7268448
0.12367544 0.56760502 3.7112761
0.1084799 0.54044771 3.7174494
0.16308829 0.59202868 3.7538412
0.14335349 0.56222564 3.7754254
0.11432686 0.6233173 3.7957482
0.10265572 0.63091058 3.7778351
0.10725809 0.66286737 3.7766604
0.14726901 0.67169243 3.8046708
0.13866153 0.69117117 3.8143785
0.075936973 0.76059437 3.8273494
0.13588683 0.7570942 3.8438087
0.10790262 0.79171795 3.8065495
0.14500062 0.7659654 3.8613303
0.16297227 0.8479495 3.894325
0.068063661 0.85310197 3.8822093
0.13295682 0.86930197 3.891644
0.13556959 0.89793581 3.8777134
0.13649955 0.93394995 3.9226191
0.14889808 0.95461363 3.9522943
0.13242429 0.98705584 3.9402602
0.1691117 0.97361571 3.951539
0.12693456 1.0339249 3.9662952
0.14364687 1.0454284 3.9686155
0.1130932 1.0415221 4.0168586
0.11333109 1.063951 3.9805729
0.12855852 1.124045 4.0132785
0.10199814 1.1574425 4.033989
0.16519259 1.165291 4.0273237
0.07986477 1.1969178 4.0254464
0.13487279 1.2274699 4.0844574
0.11411228 1.2250315 4.0119419
0.12665302 1.2785443 4.0115895
0.14306141 1.2815293 3.9975491
0.13105008 1.2554116 3.9600956
0.1255794 1.2842834 3.9088097
0.15214558 1.2797511 3.9119086
0.13376351 1.3181293 3.8757584
0.13870704 1.3294384 3.8839567
0.11065245 1.3689033 3.8650136
0.122439 1.3921043 3.8822434
0.12294213 1.3775731 3.818048
0.12639533 1.3934358 3.8007679
0.15346213 1.4226712 3.8064916
0.13757502 1.39261 3.7634265
0.14826296 1.440315 3.7604442
0.10782599 1.4596877 3.6871898
0.090967432 1.4280418 3.7199621
0.11223272 1.4620992 3.7023549
0.14488849 1.4946007 3.7233477
0.095018186 1.5112579 3.7629888
0.11981349 1.5290492 3.7228193
0.14013621 1.5229212 3.7482755
0.13345471 1.5557381 3.6691084
0.12283467 -1.3859501 3.2407429
0.095237464 -1.2838377 2.9899428
0.10296547 -1.1529818 2.8251495
0.11533488 -1.2169703 2.9312124
0.092555717 -1.1823462 2.9143147
0.14469032 -1.1505569 2.9184566
0.088194177 -1.1498084 2.8983936
0.13282512 -1.1362625 2.9386959
0.093598314 -1.1639974 2.9661005
0.084643878 -1.1664101 2.9920015
0.11018007 -1.0770993 2.9748328
0.13886377 -1.1007601 2.9815466
0.10832199 -1.0607738 2.9950781
0.10004657 -1.0765849 2.9853642
0.046116412 -1.0594913 2.9966264
0.11015886 -1.0658523 2.9693093
0.11399768 -0.99935085 2.9928193
0.11590694 -1.0457401 3.0257697
0.12848614 -1.0140748 3.0299397
0.14539805 -1.009823 3.0059214
0.11554496 -0.98941761 3.0332553
0.080254346 -0.94965655 3.041373
0.12704633 -0.94433266 3.0729437
0.10866293 -0.90197003 3.0724335
0.088453077 -0.89653516 3.0597434
0.12778498 -0.8575964 3.0578313
0.11383254 -0.87984359 3.0804486
0.08240553 -0.82045048 3.0784798
0.12435195 -0.80897456 3.0793805
0.096098393 -0.85081744 3.0847037
0.099890471 -0.83055663 3.073041
0.11553918 -0.81988078 3.0979061
0.10451429 -0.79160368 3.1118889
0.12632595 -0.76890022 3.1029058
0.12310342 -0.74508876 3.1378787
0.065309256 -0.71470153 3.141813
0.12418342 -0.69422901 3.1464016
0.10224716 -0.71815777 3.1542621
0.10936107 -0.69590867 3.1454151
0.085741885 -0.6592077 3.1553705
0.1202722 -0.63736206 3.1746504
0.10216192 -0.63521868 3.1843014
0.10828223 -0.62119901 3.1799026
0.11480717 -0.61885482 3.1614101
0.089845434 -0.575854 3.1889915
0.099813111 -0.56331491 3.2071264
0.12038191 -0.54971796 3.1925652
0.081474528 -0.59056032 3.2142136
0.11840104 -0.52072585 3.2425783
0.12570281 -0.51489478 3.2555797
0.12557487 -0.51191044 3.2422864
0.16035143 -0.49632078 3.2629757
0.12384983 -0.47276056 3.249083
0.11594857 -0.42283201 3.2797577
0.10507084 -0.44665694 3.2683616
0.11388804 -0.4680551 3.2732458
0.1188755 -0.37537727 3.3003864
0.075859234 -0.32736081 3.2780924
0.14932728 -0.34177804 3.2701955
0.12496969 -0.34750032 3.2906923
0.169395 -0.3445389 3.331929
0.099538818 -0.32384247 3.318022
0.11094403 -0.28418425 3.3160439
0.085256919 -0.25969616 3.3210618
0.11939334 -0.28243557 3.3684616
0.12047835 -0.23114532 3.3472147
0.10512222 -0.22180633 3.3195496
0.14949882 -0.21045969 3.3730307
0.10089401 -0.18128848 3.3890378
0.12521766 -0.16132903 3.3507974
0.11824123 -0.13627659 3.4384942
0.15277757 -0.17195158 3.4404809
0.15027298 -0.14800468 3.4080663
0.1233304 -0.099782661 3.4498346
0.10690299 -0.068178207 3.4420917
0.13583809 -0.045523662 3.4378226
0.13553044 -0.072758779 3.45384
0.1073439 -0.046123903 3.4581671
0.093665391 0.00043597631 3.4685419
0.13864575 -0.0011458853 3.4769888
0.16704567 0.078002378 3.5014148
0.11887053 0.049339451 3.4854319
0.14715441 0.07719361 3.4701073
0.11480634 0.071722001 3.4925246
0.093170136 0.10943291 3.4991241
0.13402018 0.07039775 3.5560639
0.099252164 0.14788182 3.5690222
0.12149998 0.13873106 3.5275671
0.13788897 0.20129484 3.5490515
0.14222813 0.19924521 3.5636942
0.14216815 0.19722092 3.5826135
0.12810737 0.24678329 3.5820873
0.15830415 0.25396776 3.6089723
0.1140404 0.27421027 3.6078839
0.1605864 0.28692639 3.6147611
0.13462591 0.30863976 3.6327732
0.1133415 0.36982098 3.6394417
0.14289418 0.36230701 3.6339052
0.12336408 0.4099772 3.6387374
0.10300405 0.41295815 3.6489656
0.15016964 0.41284439 3.6566687
0.11122189 0.463303 3.6962104
0.14932454 0.43365487 3.6820316
0.099023968 0.54165089 3.7099078
0.15020496 0.50123048 3.7267323
0.10534588 0.56550425 3.6831865
0.15891153 0.55959344 3.7611983
0.16117303 0.5848465 3.7704904
0.10674495 0.5944097 3.7779555
0.12949364 0.60117799 3.8003802
0.13682248 0.65532517 3.784729
0.15788177 0.66790754 3.8232927
0.10483903 0.6825124 3.82107
0.14889199 0.71146888 3.8068895
0.1364736 0.71077931 3.8212659
0.13786077 0.75779623 3.7938418
0.13388218 0.77235234 3.8317831
0.12678993 0.79793251 3.831836
0.13526133 0.78770041 3.868536
0.13662244 0.84361452 3.8608344
0.098196581 0.85332108 3.8708868
0.12766638 0.92157328 3.8843997
0.15200508 0.8999899 3.9022818
0.11606164 0.92718953 3.9193993
0.13127886 0.97859484 3.9175546
0.15615217 0.98800689 3.9356749
0.17597824 1.0192065 3.9423239
0.14670427 0.99065226 3.9664602
0.17771563 1.0603988 3.9724979
0.16538891 1.0681288 3.9765985
0.16061322 1.1270068 3.9871747
0.10954563 1.1321007 4.0037565
0.12817994 1.181874 4.0600986
0.14466965 1.2002267 4.0284061
0.15450613 1.2228051 4.0454636
0.13257091 1.2322115 4.0336714
0.11603753 1.2893895 4.0223656
0.14053363 1.241027 3.9805155
0.15428445 1.2514976 3.978905
0.11640912 1.3150169 3.9458447
0.13531691 1.33971 3.9407811
0.13119201 1.2901843 3.884207
0.14436705 1.3471438 3.853899
0.097493105 1.3362795 3.8432508
0.15636134 1.3324987 3.8350933
0.1084953 1.3408006 3.8153429
0.12255275 1.3893951 3.8309994
0.10931835 1.4373595 3.7867441
0.12765796 1.3798523 3.8048925
0.12601291 1.4356362 3.7310529
0.16614199 1.4702942 3.7335091
0.11515459 1.4824718 3.7297416
0.13334529 1.4966415 3.6915226
0.12825249 1.482255 3.7328045
0.11938472 1.5445906 3.7378876
0.1334327 1.5681148 3.7012396
0.11233528 1.5672541 3.6801188
0.11148446 1.5541661 3.6627414
0.10470131 -1.3907757 3.2591884
0.10287056 -1.2406104 3.0104632
0.12022524 -1.1924258 2.7873948
0.093019933 -1.1630247 2.8999536
0.099242151 -1.192994 2.9109836
0.12661275 -1.1718661 2.914115
0.10758606 -1.1739672 2.8926697
0.058106273 -1.1340054 2.9550021
0.10426269 -1.1352926 2.9576173
0.098693006 -1.0923393 2.9701738
0.063951753 -1.0786399 2.9706869
0.12132144 -1.0662565 2.9972484
0.13698483 -1.0808899 2.9461658
0.10436222 -1.0577054 2.9960248
0.14435837 -1.0356234 2.9452281
0.099904686 -1.0408789 3.01706
0.073050611 -1.0095371 2.9789827
0.12442757 -0.94824165 2.990442
0.13528635 -1.0140191 3.0543709
0.090690032 -0.96587223 3.016763
0.13743314 -0.96830058 2.9930248
0.1238014 -0.9355697 3.0082562
0.12538381 -0.92277044 3.0295825
0.13524745 -0.93002182 3.0026922
0.15431885 -0.8853308 3.0471058
0.1233381 -0.89957625 3.0252583
0.11597102 -0.88519812 3.0619605
0.096930742 -0.88362718 3.0561445
0.11901862 -0.81690329 3.1094055
0.090653285 -0.85620248 3.0698414
0.11974403 -0.7650497 3.0865231
0.069380566 -0.81594896 3.0802162
0.10848869 -0.77609891 3.1236157
0.091494791 -0.73353726 3.1059513
0.091795832 -0.72740304 3.1108172
0.092766151 -0.73812515 3.1184218
0.10172082 -0.71990269 3.1200833
0.12913345 -0.68437082 3.134347
0.12875021 -0.6849649 3.1715128
0.14193057 -0.66612881 3.1263971
0.10887621 -0.64652276 3.1144865
0.14199679 -0.64112979 3.1504805
0.12368464 -0.58920616 3.1730185
0.11313034 -0.61338991 3.1935129
0.1052449 -0.59961283 3.1710606
0.11836214 -0.607108 3.1935351
0.11131996 -0.56252748 3.1945689
0.096788161 -0.5521791 3.218899
0.14096715 -0.5068633 3.2002249
0.12406459 -0.55403674 3.2310493
0.10318055 -0.49444991 3.2675641
0.13463023 -0.46386221 3.2195489
0.1211355 -0.40925446 3.2101915
0.1052811 -0.46360937 3.2328436
0.10495826 -0.43664986 3.2220402
0.11257254 -0.44955307 3.2869637
0.10773571 -0.42728505 3.2820735
0.13206616 -0.39163515 3.288276
0.11860941 -0.36594024 3.3102078
0.1206413 -0.35626277 3.3023026
0.11993104 -0.3164393 3.3027503
0.11982131 -0.30178487 3.3437245
0.11439026 -0.28624532 3.2965493
0.1210575 -0.30761918 3.3657243
0.15283133 -0.25135925 3.3390372
0.1132417 -0.25959617 3.3352137
0.10937858 -0.20855032 3.3659024
0.10163184 -0.2253592 3.3234577
0.12492066 -0.19199587 3.4173448
0.16032137 -0.17540625 3.394403
0.1388389 -0.17761095 3.3519785
0.13169993 -0.13546658 3.3724682
0.14014478 -0.11133306 3.3970919
0.15137553 -0.091143318 3.4591432
0.18146548 -0.093460031 3.4139314
0.16529116 -0.079630174 3.425523
0.091259368 -0.0078076459 3.4078639
0.079836413 -0.055552408 3.4308999
0.17287762 -0.03896936 3.4595473
0.13578022 0.0015459107 3.4820776
0.10022729 0.01717612 3.4952257
0.14979859 0.08731547 3.4852808
0.16503762 0.042316407 3.5069013
0.13522363 0.078276403 3.5341747
0.11210741 0.080042213 3.526417
0.11952208 0.13134438 3.5345981
0.14215888 0.1498867 3.5139213
0.14123346 0.12522885 3.5412242
0.098998249 0.16535245 3.5452197
0.12531549 0.22025733 3.5218751
0.098926529 0.18532754 3.5832593
0.1746314 0.21881656 3.6024234
0.068983279 0.26349178 3.5972245
0.13110675 0.30256954 3.6159878
0.083606079 0.26668307 3.6382265
0.11184664 0.31796679 3.6236076
0.099921033 0.3531948 3.6247818
0.14963631 0.40037578 3.6466839
0.13782364 0.36724192 3.6672599
0.14580297 0.38640779 3.6458211
0.1362758 0.44715908 3.667325
0.11603066 0.40944096 3.7011285
0.13222353 0.4878276 3.7132747
0.12920684 0.47876117 3.6831677
0.13551465 0.47610265 3.6865582
0.11683846 0.48863012 3.7252004
0.1273115 0.56186569 3.7006898
0.14730896 0.57349312 3.7334926
0.13096148 0.60177219 3.7509704
0.17018107 0.64414084 3.7239845
0.13358043 0.6433779 3.7373619
0.13012503 0.65797395 3.7502267
0.12498583 0.70097935 3.7935677
0.15389049 0.74853063 3.7794354
0.17363165 0.71895748 3.7892661
0.1604725 0.7692045 3.8204935
0.14784124 0.82447094 3.8135345
0.10923038 0.80264288 3.827441
0.13212061 0.83109182 3.8440263
0.1527271 0.84436387 3.8804779
0.15154809 0.87333572 3.8722463
0.16899541 0.87209058 3.8616557
0.17873834 0.90859598 3.8952174
0.12276988 0.91481107 3.8816059
0.10196187 0.95243025 3.9191127
0.1256133 0.98009372 3.9179394
0.15909433 0.99626189 3.9664607
0.1320314 1.0305771 3.9467306
0.12592901 1.0473881 3.9673603
0.18588158 1.0915872 3.995816
0.13625731 1.0942413 3.989048
0.18589109 1.1645459 4.0072694
0.15116681 1.179231 3.9829805
0.10865033 1.1857777 4.0410442
0.15755537 1.2350178 4.0526404
0.12897673 1.2454098 4.0532093
0.17847244 1.230135 3.9983742
0.14185633 1.2808441 4.0054026
0.14376459 1.2965723 3.9983571
0.12448652 1.2891207 3.9487383
0.17908837 1.3086494 3.8851733
0.12549739 1.3287293 3.8608241
0.19126633 1.3049095 3.8627703
0.13544491 1.331362 3.8511178
0.15067141 1.363833 3.9123542
0.11104927 1.3941882 3.8724618
0.13449326 1.382648 3.8114629
0.11747975 1.4062158 3.7982528
0.12642948 1.3705862 3.7872159
0.14502548 1.3988011 3.7426922
0.15514901 1.476264 3.755317
0.12377914 1.4730331 3.6962681
0.11134655 1.4737102 3.7095504
0.1496228 1.4871945 3.6868501
0.13131279 1.5477915 3.7153907
0.18327981 1.5039794 3.7041121
0.1411702 1.542143 3.6819286
0.13705863 1.5935712 3.6791782
0.13151504 -1.3543084 3.3025355
0.08779452 -1.2587805 3.0187967
0.090226941 -1.13868 2.8181906
0.10790242 -1.2028849 2.9258044
0.081592873 -1.1490219 2.9244413
0.13772178 -1.1565861 2.9237449
0.089824863 -1.152985 2.9015594
0.10704698 -1.1225747 2.9272401
0.11278553 -1.1243819 2.9744489
0.12214901 -1.1359979 2.9432447
0.11436055 -1.0937985 2.9320538
0.11888396 -1.0539373 2.9290409
0.061990082 -1.0481282 2.9502332
0.12122615 -1.0872406 2.9576979
0.14250681 -1.0262251 2.9391913
0.11184013 -1.0292838 3.0206311
0.12223505 -1.0467658 2.9683034
0.11188781 -0.9835586 3.0101311
0.11486456 -1.0082983 3.0269279
0.1236328 -0.97960168 3.0035555
0.10303563 -0.93480879 2.9969761
0.080558427 -0.9486196 3.0241306
0.10302006 -0.94877446 3.0232041
0.10163113 -0.90089178 3.0240695
0.11829403 -0.90786082 3.0412045
0.095311664 -0.87704182 3.0656476
0.12196057 -0.87026066 3.0693123
0.12639491 -0.86200464 3.0785916
0.11092 -0.83619714 3.0634341
0.14684148 -0.82572889 3.0884633
0.13319321 -0.83715129 3.0981305
0.13044091 -0.77306926 3.087317
0.13072942 -0.81090009 3.0669091
0.12101219 -0.75172079 3.1204822
0.096637815 -0.7584058 3.1065352
0.10763837 -0.71365243 3.104141
0.1002793 -0.68164688 3.1236391
0.10908637 -0.69901615 3.144521
0.084080338 -0.70332301 3.1004293
0.1351698 -0.68631375 3.1287553
0.13740419 -0.67479885 3.129199
0.097350016 -0.68921858 3.1376755
0.12499026 -0.59846681 3.1765304
0.13460955 -0.62423295 3.1596513
0.1170887 -0.63099211 3.1869941
0.1498841 -0.55758381 3.223017
0.14478759 -0.60295987 3.2245908
0.11464611 -0.53473216 3.2006044
0.15514931 -0.55505502 3.2194533
0.12621111 -0.53907979 3.2338023
0.12809159 -0.48488736 3.2522156
0.13898985 -0.54209834 3.2684662
0.097485885 -0.42652786 3.2537689
0.15680319 -0.45542812 3.2847512
0.13570349 -0.41200966 3.2718844
0.098842382 -0.41894862 3.2504935
0.12155163 -0.38543943 3.2566094
0.10956015 -0.3978242 3.2974296
0.14183517 -0.3561064 3.240274
0.16006409 -0.34945276 3.2630346
0.097904876 -0.37307099 3.299844
0.13180883 -0.33227608 3.2985063
0.16349432 -0.29409835 3.3497486
0.15201402 -0.26989943 3.3489826
0.1188357 -0.24977638 3.3360968
0.13854802 -0.22672826 3.330152
0.11832917 -0.20890364 3.3720217
0.10818215 -0.22435696 3.3189368
0.13765448 -0.19178592 3.3347909
0.12226837 -0.16693826 3.3430486
0.11417435 -0.16272479 3.3717728
0.1233739 -0.13976803 3.4096758
0.10381018 -0.089107931 3.3685479
0.13191262 -0.15317714 3.363153
0.1355074 -0.10134942 3.4304063
0.1494025 -0.063269392 3.4063613
0.16623884 -0.063180253 3.4530509
0.1482476 -0.016366642 3.4436746
0.12981364 -0.043113131 3.4284735
0.15116063 0.0051027485 3.4402232
0.14567366 0.025043892 3.4613607
0.12419682 0.068207741 3.4977045
0.15326609 0.04319394 3.4902542
0.17737895 0.034918383 3.4491746
0.14793792 0.14078107 3.4754419
0.16714437 0.13799983 3.5164945
0.12266439 0.12890653 3.4986844
0.14376706 0.18348888 3.5398982
0.15806091 0.16023238 3.5374782
0.15239075 0.21209514 3.5482252
0.14070384 0.24173144 3.5686262
0.16185576 0.23690678 3.5657258
0.14640597 0.29815102 3.5607393
0.11993131 0.2716285 3.5756421
0.120511 0.30533996 3.5986824
0.16044258 0.29022217 3.5724599
0.13717201 0.35654163 3.6165257
0.14840773 0.37807068 3.6261566
0.1135008 0.40495902 3.6312187
0.11994757 0.39487734 3.655823
0.15419103 0.44962502 3.6442223
0.13004175 0.48158404 3.669096
0.15075536 0.47557092 3.6719239
0.17457494 0.4595893 3.7176888
0.13060178 0.49753171 3.6863256
0.1662024 0.52643347 3.7122786
0.1463462 0.55706412 3.7418816
0.13081267 0.63441199 3.7140667
0.1477644 0.58847398 3.7443547
0.11516692 0.64543355 3.7187433
0.18430351 0.66225004 3.7699933
0.1341708 0.6797834 3.7292979
0.1391854 0.66709518 3.7696147
0.13882573 0.70858639 3.788413
0.17944944 0.74332726 3.7813275
0.10674688 0.78958333 3.7955348
0.15629706 0.7864902 3.8118055
0.14454101 0.79999381 3.8253894
0.1520339 0.79981589 3.8731453
0.15562525 0.87263054 3.8439984
0.13942344 0.88973927 3.870878
0.16635302 0.88272804 3.8703787
0.11885479 0.9288981 3.9090395
0.20335126 0.96685797 3.8901346
0.1220746 0.98303384 3.9229929
0.16367699 0.98993158 3.9060428
0.16130474 1.0146706 3.9375765
0.15759397 1.0526024 3.9440358
0.16406089 1.0714623 3.9776881
0.16384973 1.0596579 3.9593503
0.18473855 1.1086249 3.9494872
0.14379254 1.1525571 4.0052533
0.161878 1.1830012 3.9959767
0.1428237 1.2215403 4.0393462
0.15391877 1.2436497 4.0327344
0.14991984 1.2248266 4.0533967
0.1574721 1.2713723 4.0116086
0.16497791 1.2584904 4.001339
0.1848771 1.242021 3.979445
0.15566701 1.2861449 3.9294057
0.14808643 1.2646042 3.9412284
0.19410378 1.324295 3.9001291
0.15487267 1.325917 3.8579245
0.15224132 1.3501403 3.8629012
0.18847497 1.3400162 3.8623474
0.16300836 1.4003321 3.8444748
0.14051741 1.411901 3.8632016
0.16760381 1.3911653 3.8035421
0.14800183 1.3966134 3.7985175
0.16721693 1.4204322 3.74735
0.12092325 1.4591 3.7787659
0.13520439 1.4518267 3.7060068
0.14618748 1.4968914 3.7197878
0.13192879 1.4916222 3.7618723
0.14501899 1.4991584 3.766777
0.10811383 1.5415802 3.7237394
0.14750542 1.5685627 3.7154393
0.15487647 1.5821527 3.6643832
0.14631636 -1.35752 3.1992288
0.11121977 -1.2900994 3.0058794
0.11183355 -1.1739558 2.8548379
0.10460888 -1.1411949 2.8921912
0.097034708 -1.1675962 2.8955102
0.1010778 -1.1045674 2.9047501
0.10481218 -1.1267319 2.9046574
0.086549506 -1.0793338 2.9344301
0.14526723 -1.098966 2.9529686
0.11299571 -1.0943664 2.9147704
0.12506187 -1.0801808 2.9242649
0.1190023 -1.0995609 2.9515631
0.097550683 -1.0922872 2.9686584
0.11652061 -1.0693114 2.9593692
0.1551058 -1.0377446 2.966713
0.12285841 -1.0010408 2.9745007
0.16686147 -0.99012154 2.9896088
0.11249077 -1.0088705 2.9765332
0.11067317 -1.0147823 2.9912195
0.11582115 -0.9374162 3.0018075
0.12955992 -0.95317239 2.9879339
0.1138431 -0.95461363 2.9904947
0.10263707 -0.89801526 2.9825134
0.1010135 -0.90167195 3.0333641
0.11958338 -0.90696567 3.0202498
0.10079402 -0.89225334 3.0013087
0.14357233 -0.87079525 3.0519748
0.12141135 -0.82685333 3.091783
0.153451 -0.82772011 3.0558646
0.12192829 -0.78794974 3.0899553
0.15778849 -0.78293276 3.0402703
0.086220756 -0.78331912 3.0810895
0.12559879 -0.74540979 3.0964568
0.1115023 -0.74667883 3.068434
0.11850715 -0.76865768 3.1040642
0.13447027 -0.76608437 3.0986388
0.084270515 -0.70577103 3.1067419
0.13276455 -0.68364668 3.0973313
0.096743062 -0.68489915 3.1449409
0.15098736 -0.70391178 3.1538918
0.13052902 -0.69106656 3.1369793
0.15548173 -0.63983482 3.1197019
0.12482578 -0.58657491 3.1695065
0.13475606 -0.60336375 3.1459684
0.1735633 -0.59885645 3.160743
0.16284689 -0.56371456 3.1820078
0.090545908 -0.58136582 3.1457222
0.10351691 -0.54137743 3.222677
0.12538536 -0.5167641 3.1727889
0.13727908 -0.512061 3.2031455
0.14472976 -0.50283319 3.1877015
0.12001179 -0.50490558 3.2339165
0.1666761 -0.45972332 3.1987832
0.11397829 -0.48607466 3.2367263
0.1067306 -0.44737244 3.2324905
0.14680327 -0.39321655 3.2650776
0.15273438 -0.41153854 3.2322006
0.14112666 -0.3913838 3.288516
0.12601183 -0.38840905 3.2883506
0.14970474 -0.32774338 3.2544107
0.13568133 -0.30723903 3.2860303
0.12151153 -0.31317836 3.2683814
0.11225684 -0.30408347 3.3006773
0.11341992 -0.27497819 3.3298323
0.11381982 -0.26415831 3.3270588
0.15280801 -0.22662258 3.3138077
0.11289537 -0.20015208 3.3475902
0.12613174 -0.21741486 3.3209164
0.16156577 -0.19352566 3.359205
0.098784953 -0.18468258 3.375946
0.15544361 -0.18318209 3.367866
0.14137523 -0.11247211 3.4031084
0.15142539 -0.10317065 3.3617623
0.14895107 -0.098328486 3.3883889
0.15530556 -0.082956754 3.4301145
0.094144709 -0.036924899 3.4253874
0.14996216 -0.029168816 3.426667
0.14198473 -0.0087176654 3.4099145
0.12931404 -0.024506876 3.4358017
0.18671839 -0.014746448 3.4646173
0.13162881 -0.004607534 3.479243
0.12426902 0.079709969 3.4602995
0.14293045 0.061212812 3.4571249
0.15184148 0.089642994 3.467211
0.11917146 0.1189753 3.4444544
0.10743338 0.13132997 3.49225
0.16845241 0.16415399 3.5085342
0.16828756 0.16005702 3.5341668
0.13998291 0.19320881 3.5217094
0.10418101 0.17537129 3.5745387
0.14302643 0.2282896 3.5352809
0.15674137 0.21647412 3.5634692
0.15240479 0.25470158 3.5622721
0.1168047 0.26682124 3.5554874
0.10596107 0.33980361 3.5477095
0.13912694 0.318203 3.5886972
0.15821223 0.33411622 3.6231542
0.13182613 0.35269573 3.584384
0.17769849 0.45410806 3.6232989
0.15622699 0.41026387 3.6533103
0.13307181 0.4040654 3.6553824
0.13911118 0.44096363 3.674602
0.15442279 0.43307999 3.6943827
0.12705751 0.49196818 3.6866734
0.16378924 0.51406044 3.6530857
0.12873434 0.54048467 3.7108712
0.16446245 0.5441637 3.6944046
0.13364203 0.53632325 3.6827412
0.15159146 0.6000222 3.7240114
0.13585506 0.62960905 3.711726
0.14475015 0.59127676 3.7648876
0.16940558 0.66020215 3.7703552
0.15015452 0.66954345 3.7495193
0.17728089 0.6749965 3.7662456
0.1149275 0.72564876 3.7928727
0.16359517 0.73878998 3.7639446
0.14387299 0.81172985 3.8064411
0.1751305 0.7808817 3.8047421
0.14690527 0.841811 3.8198478
0.17508084 0.85037076 3.8456228
0.16337045 0.89698762 3.8261664
0.12326479 0.86865377 3.8344116
0.18892057 0.94738042 3.8646774
0.11710538 0.92158824 3.8863113
0.17004691 0.96847242 3.8804407
0.15061788 0.96682823 3.9048834
0.17573033 0.98484653 3.9421563
0.15659696 1.0254701 3.9439917
0.16763173 1.0540417 3.935091
0.17443082 1.0528805 3.9507904
0.12673035 1.1273719 3.9136274
0.13956246 1.1397675 3.9717581
0.11061549 1.1384786 3.9907749
0.16524304 1.1745166 4.0314445
0.11042507 1.2121437 3.9904206
0.18633981 1.2245007 3.9953303
0.18113935 1.2353439 4.0250168
0.18154487 1.2608701 3.9864776
0.16353473 1.2911342 3.9863558
0.18182555 1.3058931 3.9255528
0.15101564 1.3077952 3.9165652
0.13008258 1.3119227 3.8795326
0.12196216 1.3458437 3.8985338
0.17944612 1.3459364 3.8740106
0.17730843 1.3888934 3.8603005
0.17873292 1.3512865 3.794461
0.15928656 1.4230272 3.7875297
0.15720624 1.4348341 3.8168249
0.15217395 1.446377 3.7780719
0.14444584 1.4412401 3.7525144
0.18853897 1.449738 3.7014968
0.14204463 1.4662091 3.6854861
0.15655401 1.4732171 3.7232423
0.14509724 1.4694525 3.7216311
0.12033 1.5024534 3.7451859
0.11595876 1.5550336 3.7267845
0.1432268 1.5607083 3.6694
0.15197927 1.5789249 3.6565275
0.11786368 -1.3380582 3.2164922
0.10915736 -1.2653931 3.0417404
0.10080088 -1.2113727 2.7800453
0.1177047 -1.1868457 2.8744094
0.09576229 -1.1610962 2.9264703
0.12141083 -1.1369345 2.8688526
0.091425031 -1.1583823 2.9386821
0.12308402 -1.1594924 2.9214454
0.13046314 -1.1018398 2.9263501
0.10747703 -1.1101927 2.9500365
0.10389984 -1.0627055 2.9242551
0.1298839 -1.0849351 2.9389076
0.10621341 -1.0547502 2.9674437
0.12462279 -1.0258765 2.9598424
0.15467443 -1.049118 2.9511442
0.10943619 -0.9920457 2.9887154
0.15380923 -1.002861 2.985065
0.075614914 -0.99228692 2.9936395
0.12085416 -0.92627746 2.9857185
0.13684909 -0.93721497 2.9527297
0.1292996 -0.94249034 2.9741132
0.094582438 -0.93623811 2.9762638
0.11067808 -0.92987847 3.0070713
0.10999037 -0.90866667 3.0239201
0.10564033 -0.88966793 2.9997766
0.13256223 -0.8777777 3.0601118
0.16400209 -0.88317299 3.0366831
0.13930626 -0.83270395 3.0368612
0.13390061 -0.80771059 3.0442092
0.16014223 -0.82566059 3.0615165
0.13548306 -0.82152045 3.0690634
0.15716839 -0.7907638 3.0888603
0.085514888 -0.76738966 3.0685263
0.12532343 -0.76236188 3.0733461
0.1031794 -0.74133855 3.0830386
0.11532803 -0.73853558 3.0894771
0.12066123 -0.72439897 3.0548866
0.14531556 -0.69773543 3.1090505
0.13144426 -0.66455942 3.1123061
0.10906786 -0.64924788 3.1337156
0.15783961 -0.69357526 3.1095586
0.14762828 -0.63620055 3.1293755
0.12342259 -0.63189268 3.1588595
0.14834505 -0.64898628 3.1519797
0.093303442 -0.61082566 3.1164517
0.12280735 -0.55620211 3.1807044
0.11433413 -0.57892436 3.1931305
0.1365688 -0.58957112 3.1588128
0.14236259 -0.53019267 3.1834514
0.10820148 -0.50981796 3.20964
0.10446118 -0.5273301 3.2162242
0.13625009 -0.45403558 3.2135227
0.10678277 -0.40836686 3.1985912
0.1623818 -0.43399027 3.2285814
0.13104185 -0.46104997 3.2589614
0.13599516 -0.42937309 3.2587948
0.18373382 -0.40292415 3.2779489
0.090240493 -0.3861298 3.2454915
0.12589084 -0.33934313 3.2665524
0.14285807 -0.35406068 3.2643113
0.16360494 -0.30730227 3.3058071
0.12079856 -0.33071163 3.3066416
0.12518455 -0.27933669 3.2697754
0.13550261 -0.26224485 3.3302345
0.10722098 -0.22944054 3.3475151
0.1626949 -0.23530687 3.3200495
0.11733898 -0.23846726 3.3656812
0.13456705 -0.22486475 3.3442941
0.14796184 -0.2074067 3.3440382
0.12394768 -0.19867401 3.3404729
0.11341453 -0.17127985 3.3832943
0.12812792 -0.10249452 3.3755496
0.11877933 -0.13406283 3.3328276
0.17702803 -0.12101831 3.4069602
0.1626154 -0.071590014 3.3676167
0.13602129 -0.10161245 3.4037433
0.15143508 -0.085759237 3.4434221
0.14967483 -0.013191065 3.4450076
0.19479612 0.0016339086 3.4241817
0.14671183 -0.013371558 3.4286282
0.12044581 0.03938327 3.4485695
0.15078962 0.056758892 3.4734204
0.12501447 0.05231031 3.4703746
0.16579966 0.10492294 3.5094607
0.16286236 0.096293494 3.4730449
0.17672521 0.095225275 3.5264938
0.11562404 0.12829039 3.5130889
0.17087619 0.15097991 3.5213761
0.15101007 0.20903799 3.5106118
0.1585324 0.17798555 3.5456717
0.1162153 0.19642644 3.5326684
0.14276391 0.25845084 3.5592446
0.17229135 0.22046429 3.5405917
0.15630691 0.3171159 3.5528593
0.16733941 0.32218364 3.5847878
0.12137119 0.35208869 3.596417
0.12855814 0.37375858 3.5867569
0.21061856 0.36846077 3.6325722
0.15631916 0.38548407 3.6633496
0.1563621 0.38960087 3.6243112
0.15594703 0.42037094 3.6383138
0.14815786 0.43726143 3.6590514
0.15194981 0.44765556 3.671726
0.17062339 0.51133883 3.6538069
0.16012211 0.54821485 3.6898658
0.13139416 0.52898407 3.6833026
0.1511061 0.59071839 3.7006433
0.16324909 0.56830102 3.7311077
0.15296027 0.61244804 3.6785326
0.16603288 0.61326134 3.7300127
0.20583801 0.64322871 3.7182972
0.15875097 0.65466565 3.7083356
0.13960673 0.64905965 3.7327361
0.16896737 0.71305317 3.7462976
0.15390712 0.71877825 3.8081703
0.17105149 0.76856107 3.7990179
0.12995012 0.75975668 3.800287
0.10566625 0.77353311 3.8005087
0.14057525 0.78076953 3.8114245
0.14290795 0.81507367 3.858562
0.1635301 0.87159151 3.8327088
0.16635299 0.86989242 3.8601508
0.16240531 0.91282052 3.8339686
0.15233071 0.94419599 3.8516004
0.18856347 0.94939923 3.8938916
0.15811622 0.96706098 3.9075384
0.16218929 1.0520546 3.8756578
0.19166414 0.98962182 3.9087064
0.15159221 1.0754849 3.9140282
0.17226008 1.0816596 3.9430687
0.13964795 1.1115983 3.9513791
0.19406086 1.1331666 3.9868333
0.17736363 1.135013 3.9783254
0.1467018 1.2022376 4.0231562
0.15425965 1.2253247 4.0221119
0.14767501 1.2274662 4.0286527
0.17341651 1.2606208 4.013854
0.17809843 1.2596331 3.9958234
0.16015998 1.2642168 3.9741182
0.15900806 1.3237545 3.9328427
0.18718167 1.2764652 3.9284568
0.18785489 1.2900261 3.8680432
0.1694935 1.3231453 3.8510301
0.14785931 1.3503083 3.839653
0.17108051 1.3954674 3.8686371
0.12715307 1.3789089 3.8308132
0.15348563 1.3907584 3.8204312
0.16501738 1.4169446 3.8225148
0.15147065 1.4041555 3.7336402
0.16422795 1.4242804 3.7236817
0.16056603 1.4442701 3.727206
0.16458125 1.4673122 3.7043502
0.11276305 1.5102593 3.7272975
0.1571185 1.494802 3.7161787
0.14536436 1.5069143 3.7134428
0.14857866 1.5380529 3.7171855
0.15273529 1.5195614 3.6866527
0.14326769 1.5614001 3.6754088
0.13267577 -1.3798059 3.2327471
0.14535698 -1.2725072 3.0256128
0.086044326 -1.1751689 2.7980909
0.16632724 -1.1923523 2.867949
0.13046052 -1.1323739 2.8896089
0.11090002 -1.1425276 2.8914988
0.10548681 -1.150596 2.8777499
0.12180444 -1.1200753 2.9142158
0.14766005 -1.1339557 2.8772817
0.13730353 -1.078422 2.8968418
0.10663643 -1.1032155 2.9369831
0.14678465 -1.1029561 2.9613519
0.13537534 -1.0712744 2.9284525
0.14553846 -1.0228336 2.951225
0.13114978 -1.0138872 2.9286461
0.10991036 -0.99948716 2.9378581
0.13163094 -1.0230998 2.9731474
0.12865598 -0.96738678 2.9838254
0.13191505 -0.96322703 2.970731
0.10629664 -0.96352822 3.0113976
0.11416394 -0.94750565 2.9912217
0.14658742 -0.95062447 3.0159109
0.18243441 -0.92276603 3.0253434
0.14602436 -0.87079477 3.0496633
0.19463813 -0.93198401 2.9836359
0.11726101 -0.86756426 2.9928601
0.13328521 -0.83579487 3.0697055
0.17077255 -0.82199538 3.0544267
0.12898557 -0.83891475 3.0696068
0.15777071 -0.81372869 3.0524316
0.16517633 -0.78318578 3.0422394
0.14313421 -0.80919152 3.0335524
0.14281298 -0.75506639 3.0840735
0.098824471 -0.78581893 3.0550613
0.1341697 -0.74466151 3.0782409
0.15248501 -0.70842046 3.0732086
0.17706093 -0.7324627 3.0713639
0.18517317 -0.68722403 3.1428969
0.13629861 -0.69870996 3.1108472
0.13042259 -0.68704748 3.0999756
0.15930304 -0.68285203 3.09496
0.13412657 -0.62762243 3.1431098
0.14334571 -0.58355993 3.1380723
0.12968475 -0.60934913 3.1464503
0.14738771 -0.59768581 3.1493237
0.11795692 -0.58381838 3.1333928
0.13745689 -0.58138669 3.1469696
0.13176768 -0.54782385 3.1687169
0.13952649 -0.51186997 3.2144585
0.10368228 -0.52753961 3.1843812
0.18176275 -0.502298 3.1765418
0.15878642 -0.47851542 3.1870816
0.11522482 -0.42278334 3.2234528
0.18425943 -0.46689516 3.2476771
0.14992008 -0.42810059 3.2163165
0.13310413 -0.41555002 3.2448802
0.10436308 -0.39595467 3.2217724
0.14265841 -0.37565851 3.2187054
0.12797646 -0.36019209 3.224607
0.1485782 -0.36019143 3.2542648
0.14514419 -0.35811287 3.2798612
0.12226471 -0.32606128 3.288965
