# .PCD v0.7 - Point Cloud Data file format
VERSION 0.7
FIELDS x y z
SIZE 4 4 4
TYPE F F F
COUNT 1 1 1
WIDTH 1456
HEIGHT 1
VIEWPOINT 0 0 0 1 0 0 0
POINTS 1456
DATA ascii
-1.2765602 -0.89568132 4.2647333
-1.2777812 -0.83432734 4.2487111
-1.286244 -0.80876964 4.2419372
-1.2852089 -0.7977699 4.2269301
-1.2649914 -0.76671422 4.2310524
-1.2919071 -0.76335347 4.2350659
-1.2772037 -0.73141217 4.2656064
-1.2923696 -0.72286642 4.3096642
-1.520763 1.0074754 4.9824123
-1.4824321 1.0234958 4.9405403
-1.5166385 1.0425467 4.9039488
-1.4594392 1.0736308 4.8776026
-1.4214884 1.0695405 4.6870179
-1.3975798 1.0556684 4.6470041
-1.4085382 1.0813537 4.6403203
-1.3755035 1.0964276 4.5928502
-1.3735908 1.1023189 4.5337911
-1.361927 1.1097077 4.5232253
-1.36401 1.1500313 4.4806275
-1.3431218 1.156342 4.4385471
-1.3419354 1.162065 4.4067769
-1.3222286 1.1942793 4.384078
-1.3186765 1.188442 4.3488927
-1.2933818 1.2085686 4.3048935
-1.2992514 1.2427485 4.2808642
-1.2879643 1.2567813 4.2529168
-1.274585 1.2642608 4.2233129
-1.2878489 1.2997004 4.241014
-1.301005 1.334511 4.30825
-1.2881557 1.334392 4.2642407
-1.2635022 1.3578584 4.23105
-1.2790122 1.3694602 4.1947794
-1.2741061 1.3898325 4.1828947
-1.2546772 1.380344 4.1546316
-1.2593174 1.3994653 4.1192594
-1.2412214 1.4349635 4.0944238
-1.2027926 1.4357756 4.0599184
-1.2311109 1.4300677 4.0586882
-1.2064042 1.4430906 4.0168614
-1.1942207 1.4724308 3.9809895
-1.1957623 1.4941372 3.9852231
-1.1850765 1.4898973 3.9294465
-1.1632818 1.4917376 3.8976119
-1.1763946 1.5032532 3.8743594
-1.1600413 1.5353024 3.8569164
-1.1714737 1.5117097 3.8257298
-1.1372567 1.5535398 3.8131034
-1.1423321 1.5598786 3.7894735
-1.1459613 1.5733063 3.7615407
-1.1069392 1.5913503 3.7473147
-1.1095281 1.5927638 3.7187381
-0.97989684 -1.295081 3.2473402
-0.96367794 -1.2787303 3.215698
-0.96279579 -1.2434831 3.2235734
-0.96434212 -1.2426574 3.2338357
-0.97012472 -1.2347487 3.2543471
-0.98580199 -1.222543 3.2720118
-0.97069997 -1.196232 3.2897201
-0.99120015 -1.2049835 3.3370719
-1.4716749 -1.2262025 4.8826804
-1.4649078 -1.2181515 4.8960466
-1.4797099 -1.2063683 4.8980393
-1.3890682 -1.0899373 4.6011667
-1.3642378 -1.0364035 4.4864054
-1.3182923 -1.002612 4.4189248
-1.3080934 -0.97464621 4.3620219
-1.3085399 -0.94231713 4.3285184
-1.2990181 -0.90274251 4.2888618
-1.2845576 -0.88347507 4.2564988
-1.263341 -0.84306854 4.2477365
-1.2665031 -0.82620716 4.2486491
-1.2594243 -0.79290164 4.2054238
-1.2668252 -0.77480769 4.2108021
-1.2539356 -0.74351907 4.2134037
-1.2862773 -0.74101931 4.2480006
-1.2869405 -0.71695679 4.2744274
-1.3052125 -0.7098065 4.3608375
-1.4991838 0.99586099 4.9743032
-1.4650677 1.0385081 4.9223561
-1.4741185 1.0487808 4.8864832
-1.4216924 1.0465424 4.7007513
-1.3890028 1.043565 4.650228
-1.3846705 1.0902212 4.6327543
-1.3777226 1.1115468 4.5918288
-1.3480371 1.1019411 4.5699291
-1.3548901 1.1233529 4.5195484
-1.345224 1.1329767 4.4920382
-1.3355699 1.1441002 4.4628806
-1.3159944 1.1702423 4.431952
-1.3159552 1.1774216 4.3898935
-1.2992803 1.1868355 4.3602285
-1.3115891 1.2019756 4.3209853
-1.2941962 1.2287406 4.3057647
-1.2826712 1.2464643 4.2620158
-1.2855047 1.2668071 4.2332807
-1.2735232 1.2726475 4.208344
-1.2673717 1.3137555 4.2480536
-1.2631044 1.330127 4.2709184
-1.2759784 1.3537458 4.2507124
-1.2631137 1.3582882 4.2053542
-1.2631612 1.3843741 4.1662431
-1.2450382 1.3954567 4.158288
-1.2453942 1.4045838 4.1341333
-1.2455908 1.4229558 4.0971551
-1.2152306 1.4162037 4.0898962
-1.2216823 1.4292786 4.0455165
-1.210786 1.4604957 4.0119724
-1.202248 1.4631579 3.9926202
-1.1960404 1.4718893 3.9567256
-1.1869048 1.4963001 3.9445784
-1.18088 1.5103495 3.916245
-1.1786191 1.5069072 3.8837495
-1.1546066 1.5476271 3.8678329
-1.1553863 1.5501614 3.8594365
-1.1632986 1.5448117 3.8220437
-1.1299504 1.5594906 3.7862043
-1.1317019 1.5691165 3.7699046
-1.1456406 1.5694052 3.7440436
-1.1251419 1.569495 3.7136374
-0.99147093 -1.3669301 3.3515382
-0.95579225 -1.2641381 3.1904156
-0.95236093 -1.2592635 3.2036355
-0.96930248 -1.2453413 3.2237666
-0.95889091 -1.2310458 3.2372923
-0.96720952 -1.2248744 3.2356417
-0.97787309 -1.2291274 3.2599242
-0.99100125 -1.1828588 3.265095
-0.98297262 -1.1824281 3.2856381
-0.99697065 -1.1610568 3.2894542
-0.97100681 -1.1587448 3.3060896
-1.468973 -1.2405245 4.8939009
-1.4535476 -1.2225425 4.9091907
-1.4597223 -1.1987888 4.8974133
-1.3601607 -1.0969812 4.6065421
-1.3512219 -1.032971 4.5017414
-1.3213676 -1.0020927 4.4054341
-1.3106496 -0.98081154 4.3709521
-1.2748579 -0.93854332 4.3136139
-1.2691729 -0.90403152 4.2865262
-1.2658215 -0.87776399 4.2432289
-1.2677208 -0.84433222 4.2215195
-1.2542917 -0.83084762 4.2053542
-1.265432 -0.78629959 4.1991267
-1.2505999 -0.75083888 4.1932321
-1.2370477 -0.7473225 4.2036324
-1.2417254 -0.72738397 4.2055316
-1.2650731 -0.71668911 4.2467155
-1.2887448 -0.6962049 4.3180475
-1.4863926 1.0220506 4.9718804
-1.4869201 1.0394367 4.9519973
-1.4500717 1.028669 4.9059634
-1.3992045 1.0337471 4.722106
-1.3942204 1.043242 4.6878676
-1.3727292 1.0680941 4.6342721
-1.3842934 1.0827435 4.6028748
-1.362232 1.1116911 4.5683918
-1.3591108 1.1117755 4.5391822
-1.337126 1.1496289 4.5184069
-1.3156869 1.1525602 4.4568105
-1.3095714 1.1692557 4.4298182
-1.30487 1.1717139 4.4127083
-1.3013364 1.2039667 4.3834128
-1.2987436 1.2304355 4.3593359
-1.272328 1.2299501 4.3114691
-1.2749565 1.2448853 4.2532425
-1.2865738 1.2512771 4.2314482
-1.2412664 1.2520286 4.2122798
-1.2524568 1.2722166 4.2005582
-1.2519734 1.3128361 4.231504
-1.2751306 1.3478193 4.2476134
-1.2540156 1.3618413 4.2204103
-1.256915 1.3786069 4.199038
-1.236939 1.3847752 4.169857
-1.2312871 1.3991839 4.1366124
-1.2012135 1.4059849 4.1037159
-1.2174039 1.4196764 4.0795498
-1.218978 1.4434724 4.0502477
-1.2000786 1.442652 4.0327797
-1.2014269 1.4644871 3.9970293
-1.1900525 1.4797822 3.9758275
-1.1768593 1.4790776 3.9483113
-1.1886435 1.4744006 3.9195788
-1.1748739 1.4962229 3.894429
-1.1780457 1.5139972 3.8811193
-1.144907 1.5252683 3.844322
-1.1488398 1.518629 3.8159957
-1.1399854 1.5662544 3.8031394
-1.1100183 1.5703456 3.7594235
-1.1288065 1.5744506 3.7587049
-1.1408112 1.5806088 3.7304518
-1.0267853 -1.4062392 3.4734669
-0.92963272 -1.2359164 3.1441317
-0.96709877 -1.2525728 3.1885123
-0.96133 -1.2371426 3.1990848
-0.92990386 -1.2276376 3.1985636
-0.96009356 -1.2106422 3.213064
-0.9588961 -1.203712 3.205833
-0.95802319 -1.1962637 3.2300768
-0.95448738 -1.1906985 3.2533872
-0.97088164 -1.1690214 3.2789266
-0.96721196 -1.1402657 3.2831976
-0.97740197 -1.1562549 3.2886415
-0.97492999 -1.1149142 3.3132868
-0.98821938 -1.1055759 3.3184011
-1.0113552 -1.1197213 3.3786156
-1.4503164 -1.2293121 4.8913159
-1.4551426 -1.1975949 4.9198923
-1.3738939 -1.126279 4.6607909
-1.3515537 -1.0645914 4.5406799
-1.320243 -1.0080271 4.4442859
-1.3074579 -0.96274567 4.3790331
-1.2843922 -0.9455899 4.3270407
-1.2619207 -0.90636951 4.273663
-1.2542794 -0.8673172 4.2491674
-1.2543548 -0.8428126 4.2060266
-1.263235 -0.8109197 4.1916142
-1.2249275 -0.797221 4.1810369
-1.24918 -0.74349123 4.1670003
-1.2304116 -0.7607224 4.1748195
-1.2396218 -0.74041766 4.2093911
-1.2457983 -0.72827238 4.2154589
-1.2943043 -0.6816864 4.2465167
-1.316348 -0.69855469 4.3771901
-1.474032 1.0298206 4.967011
-1.459727 1.0278869 4.9152026
-1.464887 1.0462141 4.9009995
-1.396879 1.0322348 4.7016425
-1.4037647 1.0654076 4.6781001
-1.3905021 1.074617 4.6277423
-1.3739551 1.0828601 4.6091743
-1.3615687 1.1094365 4.5672541
-1.3319573 1.1215233 4.5328979
-1.3271538 1.1386657 4.4804959
-1.326211 1.1539572 4.4656386
-1.3086144 1.1732879 4.4279499
-1.3074477 1.1699789 4.388041
-1.2752521 1.1934789 4.3635092
-1.2824109 1.2255567 4.3247323
-1.268923 1.2267106 4.2928643
-1.2646289 1.2332988 4.2576942
-1.2634512 1.2637898 4.2424221
-1.2395459 1.2766941 4.202672
-1.2388825 1.3055753 4.1795993
-1.2355074 1.3173323 4.1896195
-1.2369509 1.365431 4.2278118
-1.2566267 1.3643026 4.2158961
-1.2407895 1.3892475 4.1778388
-1.2302672 1.3740406 4.1441717
-1.2103924 1.4144683 4.1309624
-1.2272469 1.4109833 4.0970984
-1.2075493 1.446599 4.0626502
-1.2244769 1.434337 4.0546932
-1.205424 1.4421285 4.0172939
-1.2082359 1.4761727 3.9930925
-1.1458777 1.4450715 3.980577
-1.1575546 1.483608 3.9397135
-1.1338314 1.4849911 3.9345472
-1.1550976 1.5104201 3.8956554
-1.1433274 1.531339 3.8856285
-1.1433262 1.5251684 3.8528621
-1.1221147 1.5571524 3.80935
-1.1432822 1.5542846 3.7879047
-1.1238897 1.5745894 3.7665646
-1.109556 1.5855321 3.7477272
-1.1130506 1.5899962 3.7403369
-1.002656 -1.351932 3.3614268
-0.93802994 -1.233977 3.1295559
-0.93082064 -1.2429515 3.1802633
-0.93104893 -1.2260792 3.1914375
-0.94391763 -1.2153887 3.213649
-0.95714128 -1.2181814 3.2215788
-0.94293708 -1.1878474 3.2176571
-0.9488225 -1.1828663 3.2250304
-0.97056258 -1.1756132 3.2456052
-0.93833011 -1.1483352 3.2465374
-0.94932312 -1.1487867 3.2622182
-0.96989185 -1.1148853 3.2733104
-0.99027598 -1.1066115 3.2865591
-0.97473383 -1.1039381 3.317347
-0.97317308 -1.0875593 3.3195155
-0.98502845 -1.0833087 3.3364108
-0.99173033 -1.0698249 3.3713434
-1.0039215 -1.054265 3.3834629
-1.4418981 -1.2327299 4.8953934
-1.4548857 -1.1976414 4.9214935
-1.3522522 -1.0878794 4.6150341
-1.3177171 -1.0302452 4.4928808
-1.2905632 -1.0000004 4.414032
-1.2993944 -0.95702726 4.3480768
-1.2683157 -0.91470748 4.2995276
-1.2823912 -0.88602424 4.2508626
-1.241484 -0.85924113 4.2259464
-1.2423403 -0.82323593 4.1673145
-1.2272098 -0.81143314 4.1643977
-1.2377766 -0.79235959 4.1632657
-1.221216 -0.75300127 4.1598916
-1.2179793 -0.7340588 4.1475201
-1.2262658 -0.72913462 4.1603971
-1.246398 -0.68276376 4.2081962
-1.2591767 -0.68804115 4.2337456
-1.4765773 0.99646431 4.9887204
-1.4563586 1.0338416 4.9362416
-1.4420601 1.0299865 4.9142313
-1.3936893 1.0554799 4.7361732
-1.3816336 1.0518668 4.6808515
-1.402674 1.0749377 4.6521449
-1.3529387 1.0747697 4.6196976
-1.3287119 1.0861111 4.5949783
-1.3529103 1.0937053 4.5348392
-1.3320661 1.1318913 4.5090318
-1.334403 1.1434138 4.4782834
-1.3177143 1.166756 4.4316916
-1.3047178 1.1760826 4.4074492
-1.3075632 1.164292 4.3676071
-1.2862245 1.2134281 4.3474278
-1.2605529 1.2315394 4.3074183
-1.2795177 1.2551175 4.2952871
-1.2429969 1.2508726 4.2481956
-1.2395209 1.2631547 4.2077446
-1.2335211 1.2934372 4.1961274
-1.2277124 1.3143897 4.1573896
-1.2281373 1.3074437 4.1688771
-1.2433323 1.3351319 4.1806617
-1.2468661 1.3637282 4.2080708
-1.2315878 1.3837394 4.1725368
-1.2249222 1.3998197 4.152514
-1.2011609 1.4164382 4.1180611
-1.2060213 1.4258437 4.0996222
-1.2045968 1.4372119 4.072104
-1.1794161 1.474126 4.0260296
-1.1865393 1.4459934 4.0115609
-1.157565 1.4692667 3.9917519
-1.1625932 1.4873194 3.9604571
-1.1642261 1.4798757 3.9484177
-1.1505638 1.5136907 3.9169226
-1.1267627 1.5018262 3.8857102
-1.1411262 1.5194694 3.8596566
-1.1567957 1.5331377 3.8229849
-1.1255546 1.5364643 3.8209448
-1.1149625 1.5611789 3.7916422
-1.1184963 1.5550665 3.755266
-1.0869792 1.5819018 3.7400079
-1.1125554 1.5734613 3.7318099
-0.95004153 -1.3067962 3.2448606
-0.92058557 -1.253268 3.1620097
-0.92927986 -1.2374258 3.1590271
-0.94038987 -1.2350156 3.1850536
-0.95777327 -1.2165996 3.2042277
-0.93545437 -1.1920203 3.2017159
-0.93627369 -1.189996 3.2084262
-0.9408828 -1.1717516 3.2352273
-0.95137519 -1.1582699 3.2493663
-0.96009505 -1.1481706 3.2348897
-0.95131612 -1.1365864 3.2494366
-0.94683546 -1.1165924 3.2715456
-0.97220421 -1.0942795 3.2750497
-0.96519214 -1.0948304 3.2867095
-0.95974082 -1.0653017 3.3048608
-0.97933817 -1.0761687 3.3250856
-0.97884417 -1.0469646 3.3318017
-0.98230916 -1.0339202 3.3544505
-0.97937918 -1.0312108 3.3707292
-0.97429246 -1.0071839 3.3722227
-1.4428197 -1.2381687 4.8899822
-1.4529878 -1.1935589 4.9126844
-1.4318376 -1.176113 4.9332728
-1.3151706 -1.0495138 4.5177321
-1.3052267 -1.0106342 4.4213653
-1.2849702 -0.98827839 4.3574843
-1.2662598 -0.9351579 4.3252478
-1.2518562 -0.89752126 4.2519236
-1.2169365 -0.872311 4.2050033
-1.2392479 -0.83771312 4.1802473
-1.227825 -0.82050174 4.1740065
-1.1948159 -0.78421122 4.1264906
-1.2304637 -0.75031936 4.1532383
-1.2220758 -0.73943579 4.1419435
-1.2282951 -0.71597487 4.1547537
-1.2139614 -0.72232556 4.1524925
-1.2389667 -0.68128729 4.1948614
-1.2488265 -0.66864693 4.2563109
-1.4582304 1.0193406 4.969224
-1.4410971 1.0221436 4.9410744
-1.4293969 1.0460019 4.8874397
-1.3705026 1.0256506 4.7381086
-1.3775616 1.0614102 4.6790738
-1.3585827 1.0567994 4.646883
-1.3470336 1.0738522 4.6081462
-1.325802 1.0920135 4.5768394
-1.308427 1.1125597 4.550138
-1.3032249 1.1300108 4.5072193
-1.3037609 1.1597171 4.4648209
-1.2871675 1.1629571 4.4347415
-1.2836354 1.1820585 4.3894057
-1.2940415 1.1754918 4.3631868
-1.2957424 1.2044225 4.3318729
-1.2551067 1.2140263 4.3133435
-1.2567198 1.2298316 4.276855
-1.234935 1.2601012 4.252284
-1.2455624 1.2766792 4.2191896
-1.2205489 1.2944814 4.1829853
-1.2357372 1.2963952 4.1409345
-1.2125217 1.3133889 4.1526589
-1.2212127 1.3569459 4.1684322
-1.2291683 1.3673394 4.2034974
-1.1979142 1.3921038 4.153501
-1.2150754 1.4041286 4.1440067
-1.2074131 1.4196934 4.0990891
-1.1916262 1.4229059 4.0725818
-1.1988789 1.4320977 4.0644717
-1.184636 1.4418705 4.0225534
-1.1671404 1.4580235 3.9875314
-1.162138 1.477985 3.9824753
-1.1491845 1.4723078 3.9642477
-1.162747 1.4923785 3.9363356
-1.1447215 1.4916081 3.9017158
-1.1435065 1.5036055 3.8847401
-1.1276621 1.5458007 3.8587151
-1.1134202 1.5463074 3.8221109
-1.1202495 1.5725788 3.8005261
-1.0823395 1.5556871 3.786854
-1.1017488 1.5694962 3.7559247
-1.0978143 1.5888476 3.7353463
-1.0166327 -1.3995414 3.4669323
-0.90441459 -1.2547852 3.1477327
-0.91722023 -1.2435017 3.1691294
-0.92214781 -1.2372216 3.1771877
-0.9057256 -1.2217005 3.1841028
-0.94356829 -1.2060788 3.2071762
-0.93937027 -1.1836981 3.1898541
-0.93084592 -1.1655127 3.2113841
-0.94985986 -1.1674865 3.2065866
-0.94346279 -1.1374776 3.2336833
-0.93778151 -1.1293505 3.2440829
-0.95585692 -1.1471125 3.246917
-0.94546527 -1.1221823 3.2645953
-0.9320876 -1.0934416 3.2889895
-0.9644112 -1.0869573 3.2860973
-0.9572466 -1.0724142 3.3135457
-0.96452737 -1.0430434 3.3048556
-0.96055251 -1.0237352 3.3136575
-0.97124189 -1.0296792 3.3161907
-0.95890075 -0.99796313 3.349359
-0.95691752 -0.99781561 3.3588839
-0.97475731 -0.97492605 3.3651431
-0.98872435 -0.98361444 3.3900723
-0.98902255 -0.94553787 3.4266403
-1.4188895 -1.2181358 4.9031672
-1.429045 -1.1989654 4.9186187
-1.3573518 -1.0982438 4.6784282
-1.3008275 -1.0391715 4.477602
-1.2573428 -0.97763401 4.3945098
-1.267472 -0.95174611 4.3258138
-1.2424213 -0.91671252 4.2582617
-1.2102915 -0.90184927 4.2372351
-1.214169 -0.84805048 4.2067399
-1.2029915 -0.81951904 4.1689601
-1.1953317 -0.80926299 4.1625662
-1.2149912 -0.79469764 4.1326551
-1.1933515 -0.75274652 4.1133709
-1.2010909 -0.73696947 4.129786
-1.1841851 -0.71439153 4.116118
-1.1999817 -0.69219261 4.1416411
-1.2104534 -0.66385978 4.174933
-1.1997085 -0.66590565 4.2618551
-1.4520181 1.0196841 4.9949994
-1.4454317 1.0482624 4.9541407
-1.4416988 1.0459969 4.8868403
-1.376781 1.0240272 4.7184105
-1.3450091 1.0525625 4.6780124
-1.3580483 1.0573589 4.6413307
-1.3353885 1.092822 4.6116686
-1.3181427 1.0935974 4.5656872
-1.3104708 1.1106985 4.5405989
-1.3121392 1.1235611 4.5088811
-1.3117353 1.1406776 4.4592624
-1.2987671 1.1724483 4.4332709
-1.2804625 1.1678628 4.3960571
-1.2833477 1.2092705 4.3669019
-1.2724965 1.2042505 4.3387499
-1.2420242 1.2370932 4.3105454
-1.2302566 1.2336013 4.2730975
-1.231555 1.2637773 4.2461419
-1.2254299 1.2677909 4.2032399
-1.2342104 1.2587222 4.2003284
-1.2089639 1.2911179 4.1346664
-1.2030894 1.2879542 4.1219158
-1.2019812 1.3362269 4.1459723
-1.2207178 1.3673341 4.169353
-1.2244499 1.3875033 4.1677909
-1.2039737 1.3942306 4.1452079
-1.1784599 1.4187366 4.1179385
-1.189273 1.415688 4.0736179
-1.1732336 1.4279995 4.0528522
-1.1628063 1.4607682 4.029932
-1.1762128 1.463939 3.9948711
-1.1727786 1.472652 3.9798553
-1.1430312 1.4859877 3.9610026
-1.1341718 1.5015042 3.920826
-1.1612037 1.5158644 3.9239004
-1.1240698 1.5282506 3.8861065
-1.1302451 1.5374637 3.8630328
-1.1252984 1.5338125 3.8186078
-1.113459 1.5573186 3.8089924
-1.1064411 1.5494738 3.7558935
-1.0945512 1.5739954 3.769676
-1.0778987 1.5785238 3.7466393
-1.006254 -1.4132866 3.4758444
-0.92090386 -1.253742 3.1317477
-0.91531193 -1.2584366 3.1411891
-0.93173009 -1.2171289 3.1573458
-0.90400428 -1.2104586 3.18261
-0.92338192 -1.1921883 3.1828477
-0.90907687 -1.1922771 3.1904812
-0.93142718 -1.1765114 3.2076344
-0.93406689 -1.1468803 3.210674
-0.93205452 -1.1458455 3.2416203
-0.92904764 -1.1457356 3.2326183
-0.95718688 -1.1265146 3.241498
-0.95536059 -1.0964242 3.2423058
-0.94009894 -1.0928038 3.2702515
-0.93424535 -1.090526 3.283927
-0.94541824 -1.0906144 3.2695725
-0.9699598 -1.0458369 3.2741323
-0.95188504 -1.0323391 3.3077922
-0.96435976 -0.99350542 3.310236
-0.96444321 -1.0031549 3.332685
-0.96566045 -1.0028309 3.3284018
-0.97517669 -0.99899954 3.3553004
-0.97177142 -0.95640272 3.3737383
-0.99436998 -0.94382036 3.3742301
-0.98550177 -0.9304744 3.3983147
-0.97714835 -0.9223848 3.4029238
-0.99420464 -0.90227181 3.439816
-1.416611 -1.2080857 4.8926129
-1.4286855 -1.16679 4.9365363
-1.3322424 -1.0837008 4.5828967
-1.2694994 -1.0177163 4.4577546
-1.2614107 -1.0034105 4.3684206
-1.2304224 -0.93856001 4.31602
-1.2317426 -0.92155451 4.2480664
-1.2292517 -0.88585132 4.2119756
-1.2076535 -0.84220594 4.167644
-1.2058061 -0.81349623 4.1501985
-1.1893231 -0.79478258 4.1263709
-1.1905774 -0.76541334 4.1044917
-1.2081242 -0.74826801 4.1184244
-1.1975174 -0.71406323 4.120533
-1.1847217 -0.71142685 4.1270704
-1.1821786 -0.66366112 4.1246052
-1.2058337 -0.67726195 4.1574006
-1.2326478 -0.64851046 4.2324963
-1.4384137 1.0306456 4.9590821
-1.4303106 1.0246559 4.9337072
-1.380991 1.0210578 4.7595057
-1.3539845 1.0328987 4.6971264
-1.3562447 1.0559708 4.6576085
-1.3306239 1.0715504 4.6518135
-1.336218 1.0951616 4.5804038
-1.2964182 1.0954494 4.5525103
-1.3330522 1.1136017 4.5190668
-1.3138816 1.1477414 4.4722195
-1.2905829 1.1562126 4.4556718
-1.2908738 1.1640919 4.4177194
-1.2668217 1.1793718 4.3769588
-1.2602135 1.1971689 4.3612561
-1.2476563 1.2122858 4.3366489
-1.2573341 1.2231456 4.2964311
-1.2162048 1.2342936 4.2693987
-1.2356524 1.26863 4.2624216
-1.2342852 1.2782322 4.1940994
-1.2098231 1.2880471 4.1721859
-1.1932331 1.3089046 4.1462641
-1.1911879 1.3155426 4.1125078
-1.2000229 1.3373548 4.1132932
-1.1991869 1.3673773 4.1441669
-1.2006711 1.4090354 4.1640158
-1.2067264 1.395944 4.1283145
-1.1834697 1.4016777 4.103415
-1.1936259 1.4317744 4.0644712
-1.1619698 1.4396394 4.0506959
-1.1512021 1.4495077 4.0185523
-1.153911 1.4695917 3.9894516
-1.1466274 1.4776385 3.9667423
-1.1405448 1.5013514 3.9557688
-1.1171566 1.4881729 3.9111218
-1.1098092 1.5278454 3.8981576
-1.1386515 1.5266843 3.8583424
-1.1051689 1.5384161 3.8266895
-1.0943264 1.5381422 3.824625
-1.0761212 1.5377231 3.7815907
-1.0907562 1.5587881 3.7806096
-1.0838251 1.5879614 3.7476995
-1.0938096 1.5862604 3.7294934
-0.96212131 -1.3619548 3.369524
-0.8875882 -1.2383125 3.0839622
-0.90218544 -1.2331616 3.1410468
-0.90993178 -1.2183043 3.1695139
-0.90202272 -1.2337302 3.1594138
-0.91540313 -1.2072109 3.1938639
-0.91524279 -1.1879783 3.1842041
-0.91336972 -1.1606784 3.2046349
-0.92164987 -1.1626756 3.2067952
-0.90991271 -1.1274246 3.2166457
-0.92011064 -1.113816 3.2205305
-0.91836554 -1.1094509 3.2281387
-0.94360256 -1.0944256 3.2347536
-0.92653579 -1.076333 3.2484026
-0.91936499 -1.0768216 3.2611113
-0.95014882 -1.0517352 3.267508
-0.95768785 -1.0342458 3.2886746
-0.95491874 -1.0105132 3.2949619
-0.95006287 -0.99481964 3.309557
-0.94284505 -0.98948902 3.2973084
-0.96541739 -0.98060346 3.338172
-0.96778864 -0.9751538 3.332139
-0.96985513 -0.92695528 3.3568158
-0.97591978 -0.92754728 3.3464048
-0.97195899 -0.91109812 3.3655071
-0.97502971 -0.91251016 3.3840039
-0.97076112 -0.895293 3.4041224
-0.96895051 -0.87067378 3.432184
-0.97913343 -0.87124377 3.4248803
-1.0134586 -0.85098886 3.4685526
-1.4024153 -1.1865045 4.9429226
-1.3321434 -1.0980635 4.6465654
-1.271001 -1.009864 4.4606595
-1.258139 -0.99702841 4.375473
-1.2511123 -0.9357968 4.2878623
-1.2181295 -0.89729321 4.2523508
-1.202863 -0.86601567 4.2058573
-1.1990136 -0.84062505 4.1611247
-1.2012194 -0.81653416 4.1365762
-1.1885136 -0.80590558 4.1125832
-1.1868883 -0.77223206 4.0933299
-1.1785641 -0.74292147 4.0674658
-1.162401 -0.70989633 4.0887384
-1.196856 -0.69944328 4.0973926
-1.1888602 -0.68441987 4.096777
-1.1768036 -0.65676349 4.1284189
-1.2131498 -0.65019506 4.2018366
-1.4190507 1.0098647 4.9809704
-1.4472573 1.0292661 4.9584785
-1.3528773 1.025856 4.7543845
-1.3635299 1.0327612 4.7180762
-1.3287344 1.0661393 4.6913695
-1.3262979 1.0693215 4.6392603
-1.3326889 1.0776527 4.6389308
-1.3102622 1.0979995 4.5792551
-1.3189958 1.1080501 4.54281
-1.2803842 1.1500548 4.4920664
-1.2747409 1.1356519 4.4603305
-1.2946719 1.1694556 4.4273696
-1.263314 1.2015046 4.405694
-1.2600131 1.2016356 4.3750253
-1.2477369 1.2302432 4.3350453
-1.2481765 1.2333751 4.3011804
-1.2270805 1.2329289 4.2592402
-1.2188271 1.2563692 4.2451224
-1.2137188 1.2572236 4.2292519
-1.1986088 1.2622304 4.1795158
-1.1952891 1.2936703 4.1627212
-1.2034838 1.3021692 4.1117897
-1.1689082 1.3267871 4.1076651
-1.1882935 1.3525383 4.0895944
-1.1692042 1.3786101 4.1246629
-1.1927358 1.4214227 4.1491566
-1.195711 1.4210541 4.100925
-1.1773475 1.4203287 4.0795422
-1.1803255 1.4296254 4.0528479
-1.1443062 1.4342971 4.0252132
-1.1515672 1.4569319 4.0061216
-1.1421509 1.4652652 3.9838624
-1.1450933 1.4610101 3.9385469
-1.1313608 1.5259069 3.925525
-1.1126393 1.5214148 3.891221
-1.1206425 1.5132388 3.8743553
-1.1018046 1.5202601 3.8702826
-1.096882 1.5409226 3.8096492
-1.0780303 1.5525045 3.8047445
-1.0900244 1.5482004 3.7621222
-1.058641 1.5642642 3.7514007
-1.0629013 1.585387 3.7155116
-0.98354375 -1.4211791 3.4901102
-0.91398835 -1.2575601 3.1435838
-0.89029813 -1.2390976 3.1645739
-0.89646167 -1.2274252 3.1612582
-0.89381766 -1.2082444 3.1446619
-0.90016109 -1.2076868 3.1773119
-0.91500545 -1.1827712 3.1675196
-0.90175414 -1.1731369 3.1805573
-0.91831249 -1.1656512 3.1912911
-0.91426396 -1.1386518 3.1980867
-0.90543127 -1.1150138 3.2151248
-0.92926049 -1.1028508 3.2315838
-0.9160127 -1.1026938 3.2386827
-0.92861003 -1.0712315 3.2536702
-0.94007647 -1.0733244 3.2660491
-0.93324763 -1.0429711 3.2803655
-0.938335 -1.0313876 3.2479804
-0.92885423 -1.027228 3.2663264
-0.96277803 -1.0182961 3.275913
-0.95206565 -0.99613893 3.2962887
-0.94911176 -0.97805899 3.3293655
-0.94642085 -0.95231205 3.3104553
-0.94943047 -0.97216672 3.3180079
-0.96002424 -0.93099469 3.3486609
-0.96937126 -0.91433978 3.3494065
-0.94842833 -0.90555698 3.3611391
-0.96455866 -0.90095472 3.3700116
-0.96369147 -0.87423265 3.4004786
-0.98772115 -0.86670452 3.4193254
-0.96887803 -0.85378098 3.424593
-0.98146141 -0.82580417 3.4385331
-0.99206352 -0.81192219 3.4621556
-0.98653352 -0.81957042 3.4850285
-1.0060053 -0.77637142 3.5248475
-1.2319046 -0.96009022 4.3192449
-1.2248302 -0.91767877 4.2662048
-1.2036999 -0.86811876 4.1976404
-1.1843145 -0.8296656 4.1484694
-1.17542 -0.81314087 4.1335387
-1.1550367 -0.798576 4.1109896
-1.1852071 -0.76472366 4.0963655
-1.1861788 -0.73847419 4.0930324
-1.1669699 -0.72359484 4.0907798
-1.1723711 -0.69454563 4.0694809
-1.1696222 -0.67808592 4.0745816
-1.1747112 -0.67560714 4.103869
-1.205935 -0.64601618 4.1388841
-1.2017751 -0.62222397 4.2442422
-1.4292843 1.0265874 4.9653192
-1.4018776 1.0366894 4.9300508
-1.3564743 1.0251179 4.7462258
-1.3420529 1.0484786 4.7081938
-1.3384612 1.0568575 4.673912
-1.3224491 1.0489528 4.5568357
-1.3081096 1.0863016 4.5742164
-1.3013295 1.090289 4.557117
-1.3118095 1.1271642 4.5194912
-1.3024212 1.116712 4.4853396
-1.2535071 1.1497054 4.4567938
-1.2913575 1.1543334 4.4301519
-1.2678754 1.1899267 4.4072561
-1.2663605 1.2162936 4.3571987
-1.2335098 1.2034097 4.3150277
-1.2360237 1.2302439 4.2953215
-1.2056022 1.2342685 4.2699518
-1.209197 1.2393039 4.2219796
-1.2004863 1.2687664 4.1942253
-1.1805415 1.2869269 4.1732101
-1.1729789 1.3006663 4.1296787
-1.1697607 1.3059893 4.1070628
-1.1698699 1.3278669 4.082974
-1.1609579 1.3527137 4.0782013
-1.1694129 1.3693607 4.1005368
-1.1729366 1.3895165 4.1243324
-1.1767337 1.4228901 4.086226
-1.1593258 1.4194151 4.0822463
-1.154124 1.4502757 4.0484672
-1.1533461 1.4367055 4.0070376
-1.1558652 1.4697957 3.9879351
-1.1238378 1.4611661 3.9598093
-1.1163925 1.49116 3.929245
-1.1161619 1.5021945 3.9201469
-1.1182591 1.5067298 3.8821683
-1.1113243 1.5207584 3.8677747
-1.0933114 1.5371106 3.8505702
-1.0911925 1.5355229 3.8237607
-1.0641246 1.5598327 3.7868752
-1.0728747 1.5551164 3.7656548
-1.0560098 1.5603753 3.7457352
-1.0629699 1.5861657 3.7249877
-0.96067095 -1.361189 3.374212
-0.85789669 -1.2243356 3.0586386
-0.90358657 -1.2416523 3.1417155
-0.89117628 -1.2212509 3.142179
-0.89811426 -1.1923634 3.1531222
-0.90805233 -1.2012022 3.1439903
-0.90414166 -1.1748934 3.1724372
-0.90282136 -1.1631343 3.2012634
-0.89100927 -1.1329676 3.189064
-0.91180426 -1.1341375 3.1988971
-0.90581161 -1.1012079 3.2004519
-0.91923064 -1.1127496 3.2003796
-0.91405338 -1.0822145 3.2350485
-0.916816 -1.0738012 3.2209835
-0.92396313 -1.0601907 3.2399881
-0.91978014 -1.0474898 3.2510958
-0.91309941 -1.0359633 3.2869904
-0.9294951 -1.0157844 3.2754498
-0.92732066 -0.9950701 3.2697866
-0.94074512 -0.98005533 3.3180511
-0.92867166 -0.96760625 3.312016
-0.95154548 -0.93636829 3.3056114
-0.93767083 -0.95200783 3.3327606
-0.9344942 -0.94223839 3.3340094
-0.94335735 -0.9032129 3.3453152
-0.94992769 -0.89581066 3.3556182
-0.95369482 -0.88261485 3.3613155
-0.97313207 -0.85666156 3.3833196
-0.97318816 -0.84564888 3.3723466
-0.96632224 -0.84795463 3.4140301
-0.9688189 -0.8276909 3.4169314
-0.98476869 -0.79966247 3.4106979
-0.98093748 -0.79821134 3.4495618
-0.98944551 -0.77546293 3.4675169
-0.98020577 -0.76426935 3.4610636
-0.99806458 -0.75980604 3.5285053
-1.1865669 -0.87112367 4.1696744
-1.1654495 -0.84911019 4.1472096
-1.1775573 -0.81028938 4.1336269
-1.1691743 -0.76503772 4.1019487
-1.1731513 -0.7758227 4.0677037
-1.1457934 -0.74550605 4.0589852
-1.1458446 -0.7058264 4.0766258
-1.1624528 -0.69063646 4.056397
-1.1619413 -0.68601036 4.0665588
-1.1745038 -0.63508344 4.0953636
-1.1592243 -0.61966771 4.1050563
-1.2341002 -0.6426034 4.2981615
-1.4074798 1.0333226 4.9551806
-1.3981713 1.0178635 4.9400682
-1.3437849 1.0304862 4.7605143
-1.3371606 1.046277 4.6927199
-1.3252236 1.0563512 4.6690903
-1.3099219 1.0579046 4.5569224
-1.2832921 1.0815829 4.5423517
-1.3024709 1.0949737 4.5599117
-1.2856462 1.1282486 4.5218883
-1.2823467 1.1342392 4.4964833
-1.2649144 1.1685908 4.4593697
-1.2538939 1.1717163 4.4243941
-1.25529 1.179579 4.3911271
-1.2222164 1.2039658 4.3446722
-1.2476341 1.2170061 4.3367286
-1.2238272 1.2242364 4.2999682
-1.221517 1.2316238 4.2608891
-1.201616 1.2572362 4.2367463
-1.1846666 1.2653118 4.1972771
-1.1830089 1.2973324 4.1867328
-1.1848639 1.3000836 4.1397357
-1.1872673 1.3122891 4.1081562
-1.1665845 1.3280567 4.0829015
-1.1321945 1.3383169 4.0611324
-1.1707228 1.3702288 4.0843344
-1.1699978 1.3930048 4.0946221
-1.1555474 1.4064901 4.1188989
-1.1583287 1.4291034 4.0760169
-1.1591179 1.4513198 4.0481281
-1.1581628 1.4709544 4.0251303
-1.1403998 1.47146 3.9991043
-1.1271445 1.4776825 3.9779034
-1.1283242 1.5098376 3.9357471
-1.1071498 1.5172753 3.9079514
-1.1153721 1.5234855 3.8989482
-1.0842438 1.5356336 3.8719583
-1.1064132 1.5412368 3.8249552
-1.0800211 1.5514544 3.8285866
-1.0698618 1.5545099 3.8069828
-1.0896306 1.5531039 3.7692101
-1.0566126 1.5968878 3.7361519
-1.0608144 1.5722779 3.7184129
-0.93407089 -1.3580499 3.3701205
-0.86841905 -1.192471 3.0446162
-0.89058983 -1.2171918 3.1273491
-0.8809768 -1.2152945 3.1225963
-0.89477843 -1.2049612 3.1590359
-0.88761419 -1.1959496 3.1406691
-0.87480253 -1.1790824 3.1790462
-0.88554889 -1.1545122 3.1770113
-0.91754794 -1.1358504 3.1813145
-0.89542651 -1.1223763 3.2122533
-0.88321143 -1.1213112 3.2111883
-0.9162581 -1.1104405 3.1901202
-0.92223775 -1.0942762 3.213937
-0.90865761 -1.074875 3.2205949
-0.91139591 -1.0573912 3.2476947
-0.90740693 -1.0590596 3.2411404
-0.92634362 -1.0437673 3.2471814
-0.92252064 -1.0220866 3.2603083
-0.92949283 -1.0056279 3.2683723
-0.91852909 -0.98187554 3.2745531
-0.92569691 -0.96026891 3.2763069
-0.9224987 -0.96544361 3.3227949
-0.93722141 -0.9125334 3.3117006
-0.95399737 -0.90642887 3.3226497
-0.94737071 -0.92033005 3.3250127
-0.94406283 -0.89442581 3.3481903
-0.94543499 -0.86910909 3.3626025
-0.9530732 -0.86890745 3.3597717
-0.97293502 -0.84326082 3.364012
-0.95896465 -0.84361339 3.3707597
-0.98054314 -0.8143183 3.3949604
-0.96468168 -0.81408447 3.4086919
-0.95973033 -0.78315181 3.4286013
-0.97409666 -0.767851 3.4488626
-0.95824873 -0.74589396 3.4644599
-0.98114175 -0.73863393 3.4693995
-0.98079622 -0.71964806 3.4902649
-0.99945498 -0.69824678 3.5216904
-0.99039793 -0.6781342 3.5208249
-1.1482768 -0.76965952 4.0737863
-1.14463 -0.76762688 4.0756102
-1.1241741 -0.73664749 4.0464826
-1.1436063 -0.72102451 4.0363998
-1.1396917 -0.69558525 4.054328
-1.1533459 -0.66916019 4.0459657
-1.1512187 -0.64369178 4.0696931
-1.1485769 -0.64808714 4.0989194
-1.1848396 -0.61000776 4.1929002
-1.3958064 1.0241109 4.9690456
-1.3821034 1.0310321 4.9232569
-1.3401061 1.0251255 4.7432303
-1.3309243 1.0420293 4.7194171
-1.3357087 1.0753726 4.6624994
-1.2906711 1.0486245 4.5723433
-1.275368 1.0763946 4.5460024
-1.272728 1.0755368 4.544837
-1.2819958 1.114576 4.527976
-1.288529 1.1361433 4.4948654
-1.2606301 1.1645424 4.450861
-1.2490076 1.1838708 4.4191523
-1.2246699 1.181579 4.398941
-1.2274958 1.1963164 4.3748193
-1.2356716 1.2319615 4.333642
-1.2044493 1.2291778 4.2712345
-1.1846715 1.2373747 4.2369065
-1.1780447 1.2664105 4.2489834
-1.1906593 1.2674041 4.227191
-1.1748481 1.2891412 4.1518583
-1.1714967 1.3117213 4.1381717
-1.1638198 1.3188562 4.1108165
-1.1411425 1.3171631 4.0840163
-1.1421568 1.3348973 4.0618706
-1.1501958 1.3633291 4.044168
-1.1558162 1.3871902 4.0700812
-1.1648729 1.4063463 4.1015434
-1.1478258 1.4379594 4.0696001
-1.1562427 1.4337776 4.053103
-1.1372722 1.459875 4.0251369
-1.1219077 1.4466261 3.9971004
-1.1209515 1.4882541 3.9837723
-1.1190748 1.4897075 3.9301574
-1.1078379 1.5002631 3.9268122
-1.0787491 1.5170956 3.8913713
-1.0829648 1.5221496 3.8576031
-1.0556495 1.5222557 3.845969
-1.0785145 1.5359356 3.8093433
-1.0578413 1.5663794 3.7896061
-1.0453734 1.5736285 3.7828834
-1.0662465 1.5686669 3.7526827
-1.0530649 1.5958787 3.7227633
-0.94130617 -1.350174 3.3679407
-0.84492624 -1.2220759 3.0338454
-0.87788159 -1.2113339 3.1282568
-0.89768976 -1.2193487 3.1358757
-0.87553 -1.1940631 3.1611326
-0.89875013 -1.1838449 3.1429009
-0.87832981 -1.1672829 3.1685193
-0.89513004 -1.1471051 3.1686294
-0.88318896 -1.1609635 3.1932461
-0.88669807 -1.1131567 3.2021589
-0.90849799 -1.1201749 3.2008955
-0.91686928 -1.1027151 3.1751759
-0.90588933 -1.0807264 3.2176647
-0.89620554 -1.0595374 3.234148
-0.90884596 -1.0473166 3.2254679
-0.89808553 -1.0350716 3.2515638
-0.89839363 -1.0222657 3.2416704
-0.9209013 -0.99290305 3.2577248
-0.90875149 -0.99746573 3.2697787
-0.90658599 -0.97963649 3.2700326
-0.90918463 -0.97092915 3.2650428
-0.92738163 -0.9700582 3.276191
-0.93344581 -0.92868519 3.2972307
-0.94307244 -0.91017163 3.305258
-0.93886036 -0.90861547 3.3023026
-0.94194072 -0.90790325 3.3150132
-0.94074851 -0.87439102 3.3495884
-0.93083793 -0.85637414 3.3409166
-0.94870383 -0.86365038 3.3704445
-0.94142771 -0.83608073 3.3628733
-0.93485105 -0.81387055 3.3847568
-0.95512146 -0.78906137 3.3923111
-0.96263039 -0.78766471 3.39748
-0.95049441 -0.78072858 3.4267478
-0.95548159 -0.7485441 3.445034
-0.96279567 -0.7339375 3.4346662
-0.9819901 -0.72841394 3.4708819
-0.9732815 -0.70871884 3.4844875
-0.98526984 -0.71053851 3.4855623
-0.98291099 -0.68525219 3.5327082
-0.98876417 -0.66111022 3.5219615
-0.99953693 -0.64174259 3.5337119
-1.0067503 -0.63295799 3.5957012
-1.1448559 -0.69081783 4.0075107
-1.1246159 -0.67877537 4.0240917
-1.1281269 -0.6640237 4.0338621
-1.1413461 -0.63477534 4.0646114
-1.1722623 -0.59860772 4.1176357
-1.4012164 1.019403 4.964375
-1.3971083 1.0344746 4.931993
-1.3211564 1.0184547 4.7581153
-1.3172452 1.0538083 4.7196603
-1.3169746 1.0356234 4.6740961
-1.2837007 1.0367658 4.5778022
-1.2649292 1.0863776 4.5425663
-1.2546391 1.0920299 4.4921303
-1.2574017 1.111048 4.5079479
-1.2564939 1.137709 4.5066519
-1.2525162 1.1576574 4.4646587
-1.2464262 1.168522 4.4669819
-1.2223763 1.1900877 4.4126358
-1.2351078 1.2059444 4.3643527
-1.212827 1.213209 4.3351541
-1.202901 1.2336652 4.2981629
-1.1818194 1.233178 4.270473
-1.204123 1.2475542 4.2402487
-1.1954056 1.2679198 4.2070327
-1.1781205 1.2831339 4.1755352
-1.1514232 1.2642292 4.1605392
-1.1550193 1.3043016 4.117147
-1.1505401 1.3216355 4.0841179
-1.1488808 1.3379962 4.0738349
-1.1383379 1.3292884 4.0430331
-1.1244359 1.3603377 4.0328107
-1.1271482 1.3852823 4.0523357
-1.1393057 1.4229126 4.0642519
-1.1357793 1.4235622 4.0766077
-1.1382164 1.4672976 4.0220361
-1.1118093 1.4633311 3.9878516
-1.101896 1.4855741 3.9838841
-1.1191846 1.4793861 3.948837
-1.1074693 1.4977669 3.9291782
-1.0901536 1.5038784 3.895978
-1.0713093 1.5134938 3.8868542
-1.0832068 1.5182858 3.8530245
-1.068099 1.5335426 3.8259299
-1.072004 1.5470965 3.7876799
-1.0847104 1.5636897 3.7574248
-1.0395703 1.5830112 3.7620497
-1.0398643 1.5848106 3.7325616
-0.97910678 -1.4049661 3.4848511
-0.89683002 -1.2586038 3.1438251
-0.89264023 -1.2313001 3.1465387
-0.86973733 -1.224243 3.1371245
-0.87320626 -1.1946915 3.1443546
-0.87775475 -1.1868383 3.1392505
-0.88262832 -1.1696326 3.1469295
-0.87821817 -1.1725456 3.1681058
-0.88539678 -1.1509978 3.1767442
-0.90046674 -1.130839 3.192543
-0.89090711 -1.1337589 3.1818783
-0.88426805 -1.0974562 3.2014234
-0.8887707 -1.0844377 3.1955345
-0.88998181 -1.0780226 3.2131481
-0.8865822 -1.0617372 3.2264819
-0.91149443 -1.0527389 3.2157497
-0.90380877 -1.0216178 3.2614994
-0.91393578 -1.0113035 3.2473209
-0.91111863 -0.99592429 3.258209
-0.91576827 -0.96505892 3.2543058
-0.90900618 -0.96515995 3.2848423
-0.92476797 -0.95348036 3.274241
-0.92820591 -0.93429273 3.3002493
-0.91732323 -0.93624341 3.2993147
-0.90514988 -0.90282977 3.3039243
-0.94298428 -0.89155519 3.3174126
-0.91265982 -0.87593365 3.3298116
-0.9271636 -0.87087643 3.3267314
-0.93454623 -0.84176296 3.3695683
-0.95279646 -0.85330462 3.3614969
-0.92801332 -0.83112258 3.3700705
-0.94572395 -0.80449772 3.3815956
-0.9449963 -0.78648216 3.3847084
-0.952479 -0.76772988 3.4024324
-0.93746841 -0.75430167 3.3944645
-0.95595556 -0.74160206 3.4213495
-0.96870011 -0.71794033 3.4407599
-0.97352523 -0.7084443 3.4293818
-0.97363949 -0.69760501 3.4786129
-0.95169413 -0.66587281 3.477051
-0.99280936 -0.67681962 3.5035803
-0.96725029 -0.64416152 3.5067465
-0.98406512 -0.62182981 3.5231307
-0.9928124 -0.61704415 3.5322828
-0.97169071 -0.5862996 3.5622878
-0.99344891 -0.57913071 3.5871208
-1.1369053 -0.6348595 4.0292463
-1.1228343 -0.61797327 4.09131
-1.1494982 -0.61356324 4.1866288
-1.3686972 1.000231 4.9805989
-1.388855 1.0322347 4.9185262
-1.3349471 1.0243658 4.7550235
-1.3228689 1.0364963 4.7218356
-1.2924949 1.0459344 4.6745491
-1.276741 1.0555676 4.5714774
-1.2559512 1.066071 4.5333743
-1.2536166 1.0891968 4.4806032
-1.253522 1.0920997 4.5020719
-1.2269034 1.1351852 4.5113072
-1.2564598 1.1576853 4.448534
-1.237708 1.1716737 4.4165468
-1.2398224 1.1727624 4.3890443
-1.2056197 1.2009298 4.3365631
-1.2051179 1.2017933 4.3300395
-1.1886396 1.2128 4.2881722
-1.2062404 1.2301217 4.2695303
-1.1703634 1.26487 4.2166333
-1.1672543 1.2560985 4.2017651
-1.1643064 1.2628479 4.1642361
-1.1462116 1.2914535 4.1538982
-1.1500192 1.3163406 4.1159539
-1.133322 1.3229296 4.0806608
-1.1191335 1.3393711 4.0456343
-1.1206213 1.3376153 4.0140476
-1.1150545 1.3713186 3.9946113
-1.1240059 1.3932999 4.0376825
-1.1392959 1.4067138 4.0672431
-1.1261277 1.4462067 4.0465684
-1.1344779 1.4641716 4.004961
-1.1295749 1.4687239 3.9778137
-1.1129837 1.4873774 3.9578121
-1.0931469 1.4900967 3.9327447
-1.1010768 1.5211611 3.9101105
-1.0891184 1.5003415 3.888849
-1.0859747 1.5239693 3.8558395
-1.0683347 1.5444782 3.8393612
-1.088624 1.5384549 3.8217366
-1.0639635 1.5495704 3.79245
-1.0547758 1.5711234 3.7617846
-1.0569443 1.5577633 3.761631
-1.0239065 1.6210616 3.7250018
-0.92751849 -1.3501581 3.3640714
-0.85819703 -1.2171528 3.0618486
-0.85618734 -1.2251735 3.1283979
-0.84570509 -1.2069438 3.1234984
-0.86539131 -1.2018135 3.1339772
-0.87501603 -1.2101357 3.1476672
-0.87359869 -1.1589301 3.1475174
-0.86702126 -1.1470851 3.1479523
-0.86690885 -1.1453477 3.1806343
-0.87390023 -1.1070855 3.1937206
-0.88315886 -1.1211158 3.1954091
-0.89133263 -1.0947428 3.1948738
-0.88388515 -1.0921942 3.1898258
-0.89233983 -1.0698377 3.1920686
-0.8657071 -1.0500181 3.220964
-0.91500157 -1.0478873 3.2342787
-0.88590825 -1.0272541 3.2359083
-0.91031396 -0.99833179 3.2331495
-0.90064484 -1.0001038 3.2466254
-0.90469229 -0.98637033 3.273994
-0.90509552 -0.95579803 3.263392
-0.9077853 -0.95891702 3.2738376
-0.91261691 -0.92877609 3.2812443
-0.91066432 -0.91004843 3.2839088
-0.90385473 -0.90652668 3.2932429
-0.93781817 -0.8961435 3.3284414
-0.92606103 -0.8918857 3.3204572
-0.90937561 -0.864806 3.3451064
-0.92752856 -0.83088148 3.3234947
-0.94004691 -0.81702179 3.3477514
-0.93912584 -0.81101316 3.3595037
-0.93532741 -0.78753108 3.366338
-0.93101829 -0.7767666 3.3692284
-0.94869208 -0.74608612 3.3987119
-0.94127971 -0.74567175 3.3893671
-0.9486748 -0.73290724 3.4169211
-0.94577575 -0.69691408 3.4348805
-0.95871729 -0.70639145 3.4379859
-0.94932425 -0.68791044 3.4570017
-0.97043669 -0.66619283 3.4711325
-0.94487691 -0.65254331 3.4972107
-0.96439022 -0.63225573 3.4765289
-0.96455938 -0.62638396 3.4906607
-0.97781301 -0.60248053 3.5036874
-0.97363722 -0.5865382 3.5346177
-0.99302197 -0.56153691 3.5456922
-0.97163504 -0.54033697 3.5816982
-0.99557573 -0.52734697 3.5966234
-1.0205252 -0.52340317 3.6304743
-1.3653947 1.0136732 4.9535503
-1.32828 1.0122174 4.7730551
-1.310732 1.0198597 4.7278762
-1.3031522 1.016623 4.717411
-1.2835985 1.0505607 4.6686363
-1.2582653 1.0579149 4.5502739
-1.256864 1.0904573 4.5333791
-1.2307101 1.0988916 4.5141621
-1.2278361 1.1060514 4.471477
-1.2502809 1.1604537 4.5074668
-1.228511 1.176443 4.463315
-1.2172052 1.1703817 4.4449878
-1.2111942 1.1848207 4.3959513
-1.2059085 1.1857395 4.3635187
-1.188956 1.2131532 4.3017931
-1.1821553 1.2256663 4.2995415
-1.1855234 1.2404903 4.2613826
-1.1766641 1.2653451 4.2438846
-1.1520197 1.2678081 4.2001882
-1.1433078 1.2946507 4.1802626
-1.1487865 1.3042725 4.1481404
-1.1415055 1.2986509 4.1185546
-1.1457559 1.3289498 4.0938163
-1.1435416 1.3575591 4.0679131
-1.121694 1.362342 4.0289516
-1.1066909 1.3793802 4.0151296
-1.1050818 1.3661902 3.9884729
-1.0948684 1.421047 4.0182853
-1.1149107 1.4464551 4.0528708
-1.1158024 1.4564186 4.0247049
-1.085501 1.4799006 4.0010829
-1.1019868 1.4862919 3.9693418
-1.0981988 1.5107743 3.9475353
-1.0819981 1.4971602 3.9428213
-1.0828043 1.5057839 3.8850913
-1.0527486 1.5160353 3.8687115
-1.0656329 1.5347409 3.8459904
-1.0472914 1.5572044 3.8129475
-1.062526 1.543162 3.7931905
-1.0419872 1.5658357 3.7705674
-1.034852 1.5760975 3.7463398
-1.0436264 1.5883107 3.7262292
-0.9241057 -1.3365214 3.3760591
-0.82834834 -1.2024472 3.0542386
-0.86533636 -1.2245737 3.1358862
-0.88216734 -1.2269028 3.1201887
-0.86678994 -1.2031429 3.1103518
-0.85382998 -1.1880902 3.1416662
-0.87595999 -1.1687438 3.1442735
-0.88071132 -1.1322585 3.1276903
-0.87879026 -1.1496229 3.1757653
-0.87361348 -1.1120691 3.1964819
-0.86879367 -1.1092582 3.1769536
-0.87076294 -1.0820923 3.1967938
-0.86406851 -1.075327 3.2068748
-0.87891859 -1.0514822 3.1765871
-0.89395297 -1.0696161 3.2201643
-0.88253593 -1.0276648 3.226599
-0.88143742 -1.0132983 3.2275517
-0.89817125 -0.99773657 3.2469707
-0.90141821 -0.98520792 3.2324955
-0.89914894 -0.96866155 3.244904
-0.89244586 -0.96654737 3.26179
-0.9090454 -0.97381997 3.2753332
-0.89318526 -0.9459911 3.2786667
-0.90701902 -0.90561223 3.3027077
-0.88543296 -0.90825057 3.3071215
-0.90873808 -0.88199496 3.3245003
-0.91149175 -0.87374496 3.3140774
-0.91108274 -0.85361916 3.3184853
-0.92402726 -0.84241116 3.3194966
-0.91417199 -0.81601542 3.3397455
-0.91592544 -0.80629504 3.3498204
-0.91683364 -0.78277779 3.3786383
-0.9196983 -0.77960539 3.3816698
-0.93424731 -0.76790398 3.3838577
-0.92998135 -0.75079113 3.4033475
-0.935449 -0.71906132 3.3941948
-0.93293923 -0.70802724 3.4064698
-0.9500044 -0.68884069 3.4285696
-0.94712341 -0.68058848 3.4353893
-0.95266759 -0.67739683 3.4382596
-0.94865978 -0.65320283 3.4710429
-0.95542234 -0.64198601 3.4745007
-0.97240865 -0.61100173 3.4939706
-0.98672712 -0.60087538 3.4950523
-0.96694231 -0.58100116 3.4946325
-0.97464424 -0.55988878 3.5339141
-0.99123085 -0.53033787 3.5563543
-0.97647309 -0.52923852 3.5727322
-0.98969489 -0.52843285 3.5688815
-0.98317677 -0.50354528 3.5919642
-0.98424506 -0.46922889 3.6049182
-1.0003016 -0.47991204 3.6782837
-1.3635983 1.0181409 4.9577684
-1.3208543 1.0242338 4.7707138
-1.304237 1.0099815 4.7413192
-1.2909222 1.0443268 4.6947269
-1.2638373 1.0504422 4.6674976
-1.2628994 1.049279 4.5650125
-1.2697397 1.0576518 4.528492
-1.2399215 1.0877165 4.5058146
-1.2372699 1.0931301 4.4503932
-1.2135605 1.1276491 4.4545808
-1.2330214 1.1546912 4.4608793
-1.2106531 1.1831471 4.4156775
-1.2064643 1.1825764 4.3900652
-1.2136197 1.1756382 4.3604622
-1.2023653 1.2220277 4.3140535
-1.171427 1.2313874 4.291728
-1.1550221 1.228974 4.2601852
-1.1553289 1.2557542 4.2412577
-1.1722698 1.2751285 4.2124252
-1.1362634 1.2923813 4.1661334
-1.1597334 1.3070182 4.1458902
-1.132459 1.3062899 4.1209536
-1.1311395 1.3181084 4.0872483
-1.1035706 1.3386216 4.0800791
-1.1110346 1.3502816 4.0272446
-1.0967584 1.3467577 4.0088582
-1.0985377 1.3745816 3.9909441
-1.1050067 1.4028623 4.0053658
-1.096778 1.4209135 4.0035019
-1.1140503 1.4586838 4.0123363
-1.1062305 1.4701898 3.9975047
-1.0883489 1.4859664 3.9657552
-1.0718634 1.4921679 3.9465854
-1.0731359 1.5055972 3.9088809
-1.0674802 1.5145926 3.885793
-1.0725285 1.5144012 3.8640509
-1.0581406 1.5445657 3.8239081
-1.0400723 1.5431465 3.825799
-1.0603242 1.5580728 3.7910318
-1.0243969 1.5684627 3.7714024
-1.0372363 1.5633504 3.7333186
-1.0369331 1.5810072 3.7358432
-0.91910702 -1.3636478 3.3733916
-0.83867937 -1.2215501 3.0646839
-0.85487008 -1.2092737 3.1181636
-0.87204182 -1.2078136 3.1173553
-0.86303568 -1.2061014 3.1205087
-0.87184519 -1.1654735 3.1333592
-0.86088145 -1.1498899 3.1593966
-0.87109369 -1.1557076 3.1603529
-0.86079401 -1.1168245 3.1425529
-0.88087583 -1.1175927 3.1588976
-0.86704981 -1.1063353 3.189667
-0.87964952 -1.0975661 3.196044
-0.85583359 -1.0666331 3.1892655
-0.85766947 -1.0693005 3.1879873
-0.89477324 -1.0371983 3.2003567
-0.87695599 -1.0389919 3.1976669
-0.89613187 -1.0123819 3.2258594
-0.88904178 -0.99775791 3.2380679
-0.88864219 -0.97985297 3.2452354
-0.8884061 -0.9774133 3.2338545
-0.88707823 -0.96652251 3.2367487
-0.89555019 -0.93389857 3.2569797
-0.88289368 -0.91855931 3.2931688
-0.90812761 -0.91908962 3.2942774
-0.91032374 -0.91902775 3.2861805
-0.90261245 -0.89604533 3.3057966
-0.92095864 -0.86563867 3.3144062
-0.91542101 -0.85914493 3.3252001
-0.90426719 -0.84020561 3.3271217
-0.89904398 -0.83384234 3.3637934
-0.90757716 -0.80479681 3.3478608
-0.91149062 -0.81028092 3.3725631
-0.92828053 -0.7728979 3.3586328
-0.90797907 -0.74691492 3.3841181
-0.94399917 -0.7525149 3.3762174
-0.94485891 -0.72979105 3.3786106
-0.90892941 -0.70938271 3.4093029
-0.94195217 -0.69303906 3.4173777
-0.94809037 -0.67003214 3.4383068
-0.93120795 -0.65834534 3.4420896
-0.94227099 -0.65048647 3.4541094
-0.94670177 -0.61538589 3.4745202
-0.94739926 -0.61539179 3.4789183
-0.96119571 -0.60847926 3.5031431
-0.9604255 -0.58643425 3.5015047
-0.97287148 -0.579283 3.5246205
-0.96196258 -0.53634769 3.5278146
-0.9600057 -0.53085697 3.5285995
-0.96836996 -0.5181511 3.5488157
-0.97817534 -0.50009525 3.5630665
-0.96806568 -0.49682906 3.5825698
-0.97921473 -0.45957264 3.5888109
-0.97995782 -0.4343237 3.6145911
-0.98922545 -0.42577392 3.6276934
-1.0007585 -0.40597537 3.681941
-1.3631613 1.0075473 4.9810643
-1.3427908 1.0331531 4.9391584
-1.3015318 1.0178697 4.7557197
-1.2829658 1.0355048 4.7065678
-1.2675765 1.0355227 4.6758318
-1.2436923 1.0451994 4.5797009
-1.2411015 1.0689342 4.5306344
-1.2326711 1.0888326 4.523407
-1.2128087 1.0971973 4.4888349
-1.1961629 1.1154709 4.4404511
-1.2274088 1.1383018 4.4567046
-1.2102556 1.1717186 4.4407058
-1.2033302 1.1939607 4.4112697
-1.19803 1.2044548 4.3715677
-1.1694939 1.1962341 4.3388834
-1.1702874 1.2451242 4.311173
-1.181587 1.2284787 4.3017583
-1.1460729 1.2444068 4.2556052
-1.1565837 1.2594298 4.2278357
-1.1466807 1.2778506 4.1757731
-1.156104 1.301333 4.1572361
-1.1390399 1.3118743 4.1133204
-1.120289 1.3204312 4.0888963
-1.0909582 1.3265127 4.0767655
-1.1063519 1.359687 4.0503516
-1.1034282 1.3529707 4.0098462
-1.0985733 1.3687505 4.0054717
-1.0850674 1.3868247 3.9726522
-1.1059008 1.4107531 3.961184
-1.0970949 1.4453368 3.9942434
-1.0905876 1.4628268 3.9987385
-1.112936 1.474749 3.9652755
-1.0833195 1.4838071 3.9636776
-1.0846355 1.5072855 3.9165022
-1.0590045 1.5084397 3.906081
-1.0537627 1.5259535 3.8488181
-1.0634509 1.5347544 3.8437798
-1.0485899 1.5374156 3.8540251
-1.0426623 1.5564392 3.7975619
-1.0374557 1.5685313 3.8000164
-1.0356358 1.5755875 3.7668884
-1.0093081 1.5862737 3.7470388
-0.92920846 -1.4197227 3.4859436
-0.86302203 -1.2579981 3.1589358
-0.84351432 -1.2252165 3.112325
-0.84421682 -1.2147474 3.1147935
-0.84376913 -1.1838129 3.0909934
-0.85945678 -1.186287 3.1227689
-0.84818625 -1.1579598 3.1450956
-0.84269601 -1.1492969 3.1365051
-0.86963451 -1.1555595 3.1382618
-0.86349946 -1.1099328 3.142791
-0.86612183 -1.1253119 3.1693666
-0.85078043 -1.0974278 3.184032
-0.86117321 -1.0788261 3.2015843
-0.87222934 -1.0751715 3.1934536
-0.86257344 -1.0495968 3.2044756
-0.87895697 -1.0443709 3.2033739
-0.86869746 -1.0224316 3.2215619
-0.86248523 -1.0062907 3.24014
-0.88218057 -0.98385674 3.2471137
-0.88600069 -0.97919226 3.2382491
-0.88851416 -0.95562172 3.2462966
-0.89301705 -0.9611066 3.2682774
-0.88635528 -0.92731333 3.2832935
-0.88046181 -0.87893909 3.2733934
-0.90249026 -0.8872056 3.2747293
-0.88369596 -0.88233209 3.3054321
-0.90259635 -0.88700545 3.2994802
-0.88741726 -0.87028831 3.3052328
-0.90200734 -0.84152251 3.327605
-0.8933664 -0.8427695 3.3298833
-0.91875291 -0.80647326 3.3677135
-0.90418637 -0.78353316 3.360162
-0.93405676 -0.7841717 3.3768353
-0.89562589 -0.76143157 3.3695822
-0.92443854 -0.72768354 3.3724852
-0.91675436 -0.71028036 3.3977566
-0.90994972 -0.71445316 3.3908844
-0.92085606 -0.70594555 3.4089806
-0.92435801 -0.68315238 3.4132428
-0.92942369 -0.67122984 3.4249942
