# .PCD v0.7 - Point Cloud Data file format
VERSION 0.7
FIELDS x y z
SIZE 4 4 4
TYPE F F F
COUNT 1 1 1
WIDTH 1510
HEIGHT 1
VIEWPOINT 0 0 0 1 0 0 0
POINTS 1510
DATA ascii
0.17816199 1.5838102 3.7218118
0.22529994 1.0118932 4.9978185
0.2402322 1.0197456 4.9508138
0.24042507 1.0495622 4.9207625
0.22725439 1.070618 4.8738699
0.23272029 1.0819594 4.8373914
0.23268102 1.0872581 4.7949066
0.23444106 1.1092584 4.7514925
0.22967952 1.1109141 4.717052
0.21177395 1.1427387 4.6857681
0.24474417 1.168836 4.6728344
0.22854012 1.1745105 4.6060143
0.22608054 1.1974279 4.5732632
0.21155006 1.1876026 4.5500326
0.21825844 1.2269455 4.5169196
0.24108911 1.2663176 4.4735889
0.21150115 1.2577858 4.4616408
0.21378982 1.257226 4.41817
0.20734242 1.2868192 4.3860183
0.21077864 1.3184868 4.364912
0.18688406 1.2932088 4.323
0.21708028 1.3191366 4.2895641
0.2208128 1.3294379 4.2673216
0.20142853 1.3499944 4.2334628
0.19386341 1.3705231 4.2043076
0.20215727 1.398361 4.190249
0.20459336 1.3647963 4.1673679
0.21665888 1.4059289 4.1211295
0.22359158 1.4051884 4.0936456
0.19919565 1.45049 4.0435495
0.17856604 1.4442245 4.0518947
0.1848826 1.4553849 4.012085
0.17518589 1.4715631 3.9879265
0.18922277 1.4843358 3.9775589
0.19373485 1.4951153 3.9397902
0.18794121 1.5014415 3.900836
0.18508609 1.5018784 3.8704607
0.19044754 1.5202602 3.8656361
0.1913729 1.5286849 3.8092527
0.17637445 1.5620487 3.8226788
0.18447889 1.5431355 3.7953272
0.17018062 1.5656233 3.7569613
0.1708788 1.5803614 3.7292912
0.17075753 1.5780081 3.7155323
0.24270068 1.0083439 4.9630857
0.25411555 1.0428691 4.9220872
0.24953231 1.0584127 4.8927813
0.23616889 1.0758096 4.8579249
0.22874168 1.0964371 4.8080063
0.24309658 1.1074798 4.7916732
0.22512525 1.1125132 4.7329693
0.23314242 1.1507758 4.704124
0.23053098 1.1641152 4.6563497
0.22905871 1.1756678 4.6392407
0.22656712 1.1876651 4.5916061
0.22576636 1.2122964 4.5582805
0.2082307 1.2327639 4.5219617
0.24034329 1.2167244 4.4755383
0.21992145 1.2465852 4.45366
0.20276098 1.2786514 4.4341373
0.21534367 1.2795801 4.4145756
0.20973778 1.2991222 4.3580313
0.21173137 1.3130689 4.3262444
0.21646741 1.331916 4.3045125
0.20277108 1.35744 4.2588396
0.20797874 1.3717507 4.2310629
0.22769494 1.3676714 4.2099996
0.19432168 1.3681456 4.192606
0.20056453 1.396178 4.16119
0.20694391 1.3984486 4.1411099
0.22003363 1.4212061 4.0875173
0.19870989 1.4252188 4.0598125
0.21756819 1.4403468 4.0542736
0.23616093 1.4520664 4.0353594
0.20605001 1.4513484 3.9983053
0.19989955 1.4950001 3.9686675
0.18801437 1.4763768 3.9692824
0.20670623 1.5124867 3.9043572
0.19185054 1.5037366 3.8856146
0.19182232 1.524214 3.8814695
0.20339005 1.5341678 3.8488088
0.18866552 1.5503198 3.8199992
0.19433536 1.5557489 3.807524
0.18590206 1.5658997 3.7621799
0.16616207 1.586175 3.7331007
0.1806436 1.5816659 3.7348542
0.27057642 1.0122654 4.9691863
0.24153052 1.0283369 4.9477844
0.25110981 1.04103 4.8969278
0.24674875 1.0721009 4.8669763
0.24585173 1.0892338 4.838407
0.24598764 1.0966934 4.7932639
0.23005368 1.13034 4.7415843
0.23088367 1.1688136 4.7323208
0.23180477 1.1502265 4.6667185
0.2306437 1.169037 4.6287684
0.23822868 1.1835251 4.6248875
0.24029064 1.1861402 4.5805702
0.21822105 1.2263467 4.5516968
0.22964385 1.2299876 4.4919677
0.22292508 1.2369812 4.4684401
0.20339173 1.2724024 4.4355783
0.23684423 1.2808638 4.4192395
0.21609151 1.2950062 4.3565617
0.22841899 1.3014613 4.3634243
0.21717361 1.3210143 4.3305826
0.2266342 1.3448222 4.2761812
0.2203923 1.3429478 4.2344389
0.2158659 1.347559 4.2355332
0.19493808 1.3892819 4.2029891
0.21259697 1.4014847 4.1611667
0.20449772 1.4021264 4.1334376
0.22853625 1.4123756 4.1228909
0.20349191 1.4413285 4.0840015
0.21067744 1.4351131 4.0625706
0.2075084 1.4543616 4.0155082
0.20573168 1.460429 3.9878912
0.20651197 1.4705272 3.9899065
0.20353287 1.4752972 3.9382672
0.19375455 1.5105008 3.9051423
0.20722686 1.5073935 3.8930318
0.20698363 1.5263247 3.8717403
0.20451158 1.5282607 3.8536191
0.19318882 1.5536627 3.8321745
0.18769306 1.5753596 3.8003941
0.2015118 1.5618204 3.7725494
0.19542336 1.5779899 3.7545881
0.19017565 1.5720553 3.7477472
0.26124391 0.9989568 4.9890547
0.25385833 1.0401063 4.9539924
0.27251941 1.0378469 4.9177737
0.28040656 1.0437692 4.8888841
0.24994239 1.0641793 4.8360481
0.25101185 1.0932524 4.7968488
0.25127292 1.1196482 4.7621922
0.24769373 1.1045046 4.7201815
0.25030583 1.1550217 4.6952691
0.25222757 1.1627446 4.6594405
0.24833663 1.1885072 4.6119351
0.23086934 1.1911689 4.5915117
0.26303807 1.1897812 4.5712304
0.24471188 1.2037151 4.511632
0.23248444 1.2372173 4.4837174
0.23845915 1.2480539 4.4529376
0.25599778 1.2817773 4.4112377
0.23324075 1.2743509 4.400146
0.23199797 1.2776217 4.3550854
0.24936052 1.3193979 4.3094263
0.24181499 1.3293304 4.2824688
0.22178572 1.3444611 4.2627621
0.21766169 1.3467162 4.2335496
0.22495222 1.3856215 4.2083459
0.22724974 1.3877113 4.1533146
0.22874716 1.3864776 4.1404753
0.23125204 1.4133277 4.1033635
0.22358477 1.4249537 4.0863466
0.22222699 1.4278207 4.0738869
0.21454601 1.4472594 4.0442634
0.20295745 1.4525145 4.0191751
0.20164536 1.4621247 3.9719894
0.22288807 1.4882852 3.9400682
0.20815705 1.4980125 3.9115453
0.21537918 1.5082144 3.8987901
0.18102761 1.5152858 3.8924894
0.21375257 1.5173823 3.8517914
0.22226577 1.5555401 3.8455062
0.19179006 1.5405998 3.811666
0.21041927 1.551802 3.7777338
0.1948752 1.5684042 3.7689095
0.18825138 1.5737845 3.744185
0.19658296 1.5772086 3.7135487
0.2775664 1.0045943 4.9672451
0.24342635 1.0352744 4.9234028
0.26094708 1.0601305 4.9065075
0.28870851 1.0676036 4.8579116
0.27133897 1.0931226 4.814961
0.25621045 1.1274891 4.7723503
0.26718256 1.1061116 4.7332716
0.26478395 1.1370105 4.6915245
0.26256424 1.1386944 4.6718678
0.24772397 1.1696252 4.6348391
0.24946043 1.2014804 4.5990543
0.2550725 1.2196578 4.5594893
0.26241729 1.2219384 4.5196409
0.25242591 1.2272363 4.4980412
0.25306508 1.2579315 4.4472203
0.25382012 1.2669449 4.4229813
0.25338265 1.2812514 4.3829932
0.23378456 1.3096025 4.3722296
0.22951649 1.3085454 4.3344021
0.21178041 1.3428524 4.2895823
0.22240211 1.3429725 4.2573252
0.24659207 1.3626682 4.24508
0.21805713 1.383994 4.2233829
0.24024923 1.3787667 4.2151999
0.22161619 1.3885498 4.152617
0.23304376 1.4296114 4.1343522
0.21854502 1.4147638 4.1067791
0.23042457 1.4320942 4.0635505
0.20278652 1.4303732 4.0578408
0.21908469 1.4649154 4.0247302
0.19753918 1.4898329 3.9931333
0.21845226 1.4803853 3.9685149
0.22614472 1.4736674 3.9411304
0.23515226 1.5113106 3.9110136
0.20732576 1.5095387 3.891161
0.19761349 1.5380201 3.855994
0.20432693 1.5332035 3.8359826
0.20099773 1.5325894 3.8146491
0.22113325 1.5693905 3.8003058
0.22128685 1.564294 3.7531421
0.21407571 1.5767938 3.7503111
0.22422773 1.5869851 3.7184434
0.2801812 1.0054234 4.9837322
0.27436402 1.0240273 4.945538
0.28142232 1.027389 4.9105077
0.27896079 1.0492147 4.8542047
0.26334763 1.0861503 4.8219886
0.26778206 1.1098707 4.7798519
0.27212775 1.1285813 4.7495546
0.25591514 1.1420931 4.7146921
0.27508035 1.1581061 4.6660862
0.27148977 1.1672306 4.6338663
0.25859484 1.1882261 4.597291
0.2603347 1.2079136 4.5832934
0.26589033 1.2122356 4.5498953
0.26810512 1.2294531 4.5012183
0.24672775 1.2461095 4.4630003
0.24377204 1.2579949 4.4485312
0.25248092 1.2712046 4.4206805
0.25107846 1.2926079 4.3710589
0.25023976 1.3064656 4.3468246
0.22639847 1.3241258 4.3194857
0.22696106 1.3470346 4.2844357
0.24691331 1.3434222 4.2461252
0.23389523 1.3574567 4.2280359
0.25110406 1.3872116 4.2022862
0.23774111 1.38991 4.168714
0.22072309 1.4067276 4.133369
0.23702328 1.3935939 4.1074991
0.23029132 1.4194162 4.0809269
0.22633539 1.4401211 4.0480552
0.22605181 1.4431129 4.0422206
0.25597203 1.4459121 3.9884977
0.24848646 1.4666226 3.9708958
0.21127035 1.4961463 3.9436557
0.23506755 1.5024287 3.9158163
0.22571926 1.5081915 3.8872654
0.21243264 1.5287201 3.8761556
0.21532036 1.539291 3.8598161
0.22789219 1.5455292 3.8099911
0.21716578 1.5605481 3.8026416
0.21571375 1.5578656 3.7565589
0.22341509 1.572978 3.7397563
0.23069824 1.5899366 3.7346792
0.28776234 0.99484068 4.9830098
0.27550581 1.0148895 4.9463902
0.28545776 1.0526265 4.9120374
0.26848719 1.0619729 4.8774166
0.30725092 1.0877303 4.8254414
0.28114879 1.1011229 4.7994518
0.25735483 1.1120888 4.769681
0.26687837 1.1460893 4.7215352
0.26968035 1.1467326 4.6719794
0.26054895 1.1666021 4.6595182
0.27217478 1.1984752 4.597209
0.27418345 1.1898642 4.5682921
0.2695331 1.2310164 4.5499773
0.28132513 1.231618 4.5159087
0.26772448 1.2321736 4.4705343
0.25949892 1.2739668 4.4417782
0.2657527 1.2589456 4.4177675
0.23799011 1.27897 4.3995194
0.26059604 1.2973671 4.3437238
0.26520097 1.2892609 4.3391519
0.23593526 1.3199402 4.2965989
0.25584298 1.3360913 4.2689724
0.23333956 1.3516862 4.2319679
0.24179506 1.3777707 4.2130742
0.23253836 1.3759859 4.1708302
0.22609687 1.4097005 4.1596088
0.25567698 1.4038728 4.0998535
0.24380386 1.4215493 4.0955505
0.23934171 1.4345744 4.0680499
0.24641021 1.4413414 4.0211897
0.22751616 1.452667 4.0135446
0.23076203 1.4662681 3.987675
0.2250099 1.4690932 3.9532926
0.24930315 1.4814517 3.9378874
0.22266623 1.5040925 3.9238324
0.22376783 1.524169 3.879791
0.23184235 1.5328393 3.8743215
0.21889171 1.5473988 3.8273029
0.23271671 1.5432907 3.7968075
0.21508683 1.563167 3.7929478
0.23722017 1.5810081 3.7650149
0.2137067 1.5964774 3.7391987
0.22079524 1.608636 3.7196124
0.32218879 1.0111355 4.9560323
0.29949388 1.0057609 4.9298677
0.30879787 1.0441101 4.8748593
0.29479086 1.0672126 4.8448272
0.28263682 1.0870926 4.8111057
0.31322166 1.1085058 4.7506132
0.28883994 1.1262496 4.7227678
0.28138199 1.1430537 4.6912918
0.28046474 1.1500381 4.6440706
0.28562957 1.1684712 4.623271
0.28571433 1.1795138 4.5973387
0.27356681 1.2153034 4.5555029
0.27688363 1.2171984 4.5293961
0.28403592 1.2206498 4.5024605
0.27163061 1.2422214 4.440773
0.26863393 1.2613719 4.4342036
0.27665499 1.2692573 4.4005251
0.24815357 1.3091098 4.3661499
0.26723027 1.3229342 4.3422441
0.2560764 1.3228483 4.2986708
0.26513833 1.3451778 4.2805696
0.26192704 1.342081 4.2540855
0.2540001 1.3539068 4.2198944
0.26171044 1.3877367 4.1748514
0.2316007 1.3966209 4.1612744
0.24922119 1.4003042 4.1212001
0.26895621 1.4193466 4.1098123
0.24343292 1.4415873 4.0808182
0.23468705 1.4324801 4.0526628
0.26016209 1.4555774 4.0233545
0.24808078 1.4754657 3.9899585
0.23713489 1.4682865 3.9691846
0.22759181 1.4767039 3.9373884
0.22767371 1.4879229 3.922245
0.23360632 1.5166895 3.8797691
0.23991531 1.5249571 3.8598602
0.23318872 1.5396612 3.834414
0.23712596 1.535912 3.8255887
0.21510352 1.5560052 3.7895525
0.24723351 1.5761571 3.7546604
0.23125438 1.5774986 3.7507477
0.23592418 1.5767907 3.7291553
0.32390049 1.0208238 4.9792037
0.33496764 1.0263414 4.9434838
0.31279787 1.0495508 4.9037628
0.31139228 1.0544978 4.8640532
0.3035903 1.0583905 4.8353105
0.2780695 1.0863019 4.7911892
0.30685899 1.0939361 4.7477674
0.30021068 1.1240199 4.6993713
0.30329189 1.1498604 4.6733527
0.28258702 1.1653652 4.6249809
0.30034766 1.169296 4.5949636
0.29165423 1.2022433 4.5789499
0.28385171 1.2158661 4.5370231
0.27660421 1.2138846 4.522438
0.29048637 1.2546699 4.4715419
0.27969444 1.2647221 4.4367971
0.29768693 1.2781 4.4176259
0.29024801 1.2929364 4.376575
0.28103033 1.3058834 4.3401208
0.26340744 1.3226393 4.3196306
0.26902303 1.318977 4.2906394
0.28711894 1.3396772 4.2531219
0.26971108 1.3582876 4.2077498
0.26461309 1.3935087 4.1877937
0.25328872 1.3842 4.1739035
0.25236684 1.4102037 4.1342244
0.24166752 1.4238396 4.0925698
0.26175532 1.4307024 4.0784526
0.24745582 1.4336002 4.0537977
0.24424833 1.4358932 4.0284238
0.25234327 1.4641975 3.9894009
0.24190094 1.4731003 3.9869919
0.24233225 1.4828148 3.9516637
0.25215545 1.5005209 3.9309011
0.23120584 1.5054512 3.9005978
0.2625559 1.5229076 3.8650062
0.22207627 1.5267947 3.8563499
0.23125784 1.5411787 3.8323605
0.23025422 1.5447652 3.8005898
0.21438017 1.5696459 3.7728906
0.23410439 1.5741211 3.7378511
0.24048136 1.6003299 3.7131639
0.31514275 1.0015576 4.9696345
0.33400482 1.021914 4.9539232
0.31464005 1.0361514 4.9179101
0.31350026 1.058851 4.8875451
0.29658607 1.0853974 4.8373003
0.31176189 1.0976443 4.8066373
0.29361093 1.1006403 4.7695665
0.31339008 1.1209743 4.7213612
0.29412028 1.1397847 4.6635809
0.2954565 1.1660641 4.6530352
0.29970041 1.1947902 4.6134744
0.29260242 1.1918947 4.5664077
0.29811561 1.2006873 4.552866
0.29205027 1.2136458 4.5196514
0.2799848 1.2359822 4.4789858
0.28403109 1.2674733 4.4475508
0.29571882 1.2662846 4.4058671
0.27352348 1.3052503 4.382288
0.27780184 1.3043569 4.3594422
0.26538229 1.3165889 4.3126168
0.27430677 1.3322492 4.274703
0.29203022 1.3423827 4.2514815
0.26307842 1.3539753 4.2226667
0.27617833 1.3475564 4.1958246
0.27255628 1.3795546 4.1657972
0.26857126 1.3890013 4.1352205
0.26630819 1.4093455 4.1169806
0.25903451 1.4456016 4.0823312
0.24013573 1.4263901 4.0525622
0.25150469 1.4400443 4.0337205
0.26506329 1.4654038 4.0111761
0.26502556 1.4653575 3.9784496
0.25600654 1.4801235 3.9605839
0.24192117 1.4868739 3.9466262
0.24647714 1.5115366 3.9066379
0.23715404 1.5243313 3.9015338
0.24375816 1.5326074 3.8766961
0.23701918 1.5283991 3.8363602
0.24036676 1.5435356 3.7921338
0.26089323 1.5554686 3.8064957
0.23152283 1.5724734 3.7691376
0.23776846 1.5821818 3.7515144
0.22359167 1.593735 3.7141979
0.32722491 1.0092365 4.9611397
0.32413515 1.0439266 4.9365087
0.32326016 1.0458039 4.8868747
0.31286424 1.0723479 4.8497481
0.31799778 1.0858226 4.8277812
0.31452775 1.1095271 4.7952318
0.32005227 1.1229025 4.7424483
0.3038761 1.1453893 4.7081566
0.30610338 1.1601342 4.650394
0.31649956 1.1722292 4.6129956
0.30783659 1.1998839 4.5824447
0.3003594 1.2166516 4.5792828
0.282285 1.217059 4.5176692
0.30822539 1.2220638 4.4795833
0.30385661 1.2545152 4.4522882
0.3060492 1.2685944 4.4438314
0.29400402 1.2928818 4.4180188
0.29460472 1.2978438 4.3764777
0.28422636 1.3181828 4.3388038
0.27389741 1.3249668 4.3079529
0.29039562 1.3394946 4.2724762
0.27653617 1.359062 4.2531986
0.28826845 1.3624456 4.2036695
0.28965375 1.3789076 4.1904807
0.27464753 1.394612 4.1703839
0.25998369 1.4120781 4.1462407
0.28003591 1.4206399 4.0912476
0.27149951 1.4386601 4.0864577
0.26565382 1.4389091 4.0448985
0.27232704 1.4615797 4.0267658
0.25146595 1.4613951 3.9997687
0.2619544 1.4685689 3.9678268
0.25970128 1.4969606 3.9247735
0.26197794 1.5027736 3.9165444
0.24380302 1.5115473 3.8942027
0.26303127 1.5270802 3.8697815
0.25781175 1.5571743 3.8417661
0.25338003 1.5440999 3.8293355
0.2718181 1.5486475 3.8126366
0.24018866 1.5807699 3.7810967
0.25404328 1.5909778 3.748898
0.25373077 1.5775951 3.7183359
0.33918864 0.9891277 4.9844007
0.32851782 1.0287641 4.9303198
0.34050837 1.0397002 4.8940034
0.32986021 1.0749168 4.860229
0.30005506 1.0833824 4.8288064
0.31632948 1.0973674 4.7928629
0.31007057 1.0988058 4.7556515
0.32203749 1.1461197 4.7012897
0.31062695 1.1522413 4.6564527
0.28959048 1.1710402 4.6318631
0.29688227 1.1886899 4.612288
0.3084687 1.1890787 4.5770249
0.29692963 1.2003899 4.5305367
0.31098843 1.2354472 4.5025048
0.30874017 1.2506346 4.4663401
0.29225376 1.2494386 4.4395165
0.30251178 1.2903558 4.4126396
0.29593363 1.2858753 4.3728685
0.27846366 1.3124487 4.3362589
0.29911423 1.3261408 4.3316507
0.29171684 1.3227922 4.2934833
0.29391849 1.3368471 4.252738
0.27794111 1.3773401 4.2112832
0.28076181 1.3671997 4.1796198
0.29413539 1.3803355 4.185698
0.28486627 1.394455 4.1366253
0.28435352 1.3958964 4.1078501
0.27200037 1.4317406 4.079247
0.26678291 1.4339021 4.0541449
0.2705391 1.454739 4.0334735
0.27447754 1.4347024 3.9952359
0.27775082 1.4800191 3.9807057
0.26557386 1.5005814 3.9439895
0.26676443 1.4888687 3.9293156
0.26214442 1.5100851 3.8984668
0.26686388 1.5381771 3.8673818
0.25282493 1.5419227 3.8464921
0.2625809 1.5611358 3.8301234
0.26039544 1.5473931 3.7894456
0.27383736 1.5788569 3.7760179
0.23865512 1.5747343 3.7461505
0.26135886 1.6036952 3.7407279
0.33850831 0.99728143 4.9838467
0.33830452 1.0266676 4.9517555
0.3328428 1.0523415 4.9151492
0.33730149 1.0663612 4.8690758
0.33367342 1.0713753 4.8500996
0.32906526 1.0882086 4.8079944
0.33825374 1.1068105 4.7571049
0.33839166 1.116877 4.7203135
0.33191708 1.159377 4.6875653
0.32349646 1.1438785 4.6493855
0.31341895 1.1908035 4.6305318
0.32163239 1.1934407 4.5919671
0.31310543 1.2156819 4.5504494
0.31771606 1.2345848 4.520154
0.28330582 1.2312258 4.4755421
0.30759445 1.2478273 4.4663157
0.30201668 1.2749677 4.4039803
0.30396682 1.291543 4.3645
0.30253837 1.2822717 4.3320022
0.30370671 1.3027796 4.3331175
0.30303738 1.3281418 4.2791505
0.29985532 1.3482537 4.2762513
0.27696833 1.3585106 4.2355723
0.2745834 1.3758752 4.2107263
0.30117798 1.3830719 4.165628
0.3000302 1.3878211 4.1524882
0.27689281 1.404462 4.1173329
0.28561398 1.4270432 4.0902505
0.28901362 1.4462234 4.0629721
0.29456559 1.4364654 4.0260592
0.28165662 1.4493322 4.0134544
0.28258798 1.4790678 3.982368
0.28523943 1.4891747 3.9525785
0.28489301 1.5120318 3.9351563
0.24764147 1.4954978 3.8997543
0.26824814 1.5109785 3.8981619
0.27737135 1.5231087 3.8722661
0.26533908 1.5396994 3.8258467
0.26626351 1.5533191 3.8115151
0.26352811 1.562255 3.7728167
0.26174122 1.5775503 3.7512801
0.27130225 1.5839745 3.7577724
0.26608652 1.6009836 3.7165513
0.35330266 1.0172973 4.9875484
0.3732256 1.029793 4.9227448
0.35238078 1.0549248 4.9002333
0.3481603 1.0707392 4.8562708
0.32927176 1.1017824 4.8077488
0.34229004 1.1025584 4.7662144
0.33840516 1.1228544 4.7436028
0.35382688 1.1526114 4.6973867
0.33579421 1.1586608 4.6561651
0.33217672 1.1601286 4.6225309
0.33588332 1.1815951 4.5774393
0.34525496 1.2053903 4.5639033
0.33418459 1.2197403 4.5232453
0.31191164 1.239905 4.4976702
0.32762021 1.258894 4.4498358
0.32450479 1.2550559 4.4159117
0.3334111 1.2877561 4.3839402
0.31483269 1.3150731 4.3564868
0.30329284 1.3006251 4.3185968
0.32477415 1.3121333 4.3002958
0.28382137 1.3366027 4.2871146
0.30248123 1.3563828 4.2387347
0.29580572 1.3688449 4.2094178
0.31290492 1.3776811 4.1769834
0.29736775 1.3834037 4.1690564
0.30443323 1.4356098 4.1378117
0.30656329 1.4188513 4.1068506
0.27341628 1.4282482 4.072331
0.307446 1.4642863 4.0397615
0.29369676 1.468987 4.012588
0.25837868 1.4812691 3.9942291
0.29283354 1.4856597 3.9663224
0.29686737 1.494848 3.9560215
0.28967211 1.4940698 3.9220202
0.28640458 1.5174248 3.8809636
0.2751134 1.5005416 3.8674223
0.26255509 1.5355771 3.8495758
0.28177896 1.5394436 3.8154292
0.26126507 1.5585731 3.7962949
0.27233529 1.561281 3.7599156
0.26826033 1.575928 3.7531052
0.25602752 1.6125491 3.7334816
0.35896692 1.0075828 4.9956841
0.36676157 1.0352061 4.9212894
0.36879179 1.0596929 4.8975
0.3781296 1.0707084 4.8424382
0.34782425 1.0852771 4.8314691
0.33982721 1.116196 4.7743311
0.35258371 1.1127585 4.7614775
0.32715547 1.1367341 4.7118163
0.32284018 1.1466262 4.661334
0.36257714 1.173565 4.6322026
0.34159744 1.1766515 4.6072941
0.32199407 1.2021259 4.5753264
0.30986616 1.2170861 4.5370069
0.33088121 1.2555382 4.4956794
0.32488415 1.2633706 4.4760127
0.31946856 1.2390056 4.4378142
0.31022587 1.2753206 4.4015231
0.31341276 1.2930059 4.3651924
0.32241252 1.3030375 4.3405495
0.32371962 1.3027881 4.3096666
0.30730388 1.3334309 4.282805
0.31479535 1.3663319 4.2387877
0.28695157 1.3521349 4.2311053
0.30698648 1.366769 4.1882215
0.30701852 1.3949106 4.1611214
0.30786932 1.4073027 4.129601
0.29179844 1.4047619 4.0936565
0.28064615 1.4200708 4.077414
0.29727152 1.4356034 4.061831
0.28429374 1.4614743 4.0314841
0.30542395 1.4701895 4.0110002
0.29564384 1.4623024 3.9652262
0.28629872 1.4836994 3.9455974
0.27722386 1.4965638 3.897191
0.25410673 1.5060477 3.9124892
0.28925326 1.5222455 3.8699729
0.26808131 1.5124729 3.873045
0.26718712 1.5439923 3.822823
0.30301124 1.5571145 3.8048968
0.28302783 1.5683918 3.7777212
0.27374896 1.5728678 3.7538278
0.27202207 1.6025012 3.731252
0.37343866 0.98842299 4.9892902
0.3671467 1.0164824 4.980082
0.36555222 1.0441573 4.9231982
0.34784797 1.0722539 4.8842363
0.37816724 1.0502734 4.8402424
0.36570704 1.0995318 4.8013973
0.35513434 1.131011 4.7594137
0.33200216 1.1276708 4.7312393
0.34293786 1.1402653 4.7029433
0.34990862 1.1723142 4.6609468
0.34947002 1.1768678 4.6207542
0.33958822 1.1912166 4.5935941
0.34310418 1.1993401 4.5709572
0.31717774 1.2246103 4.5313735
0.33191314 1.2526169 4.4768405
0.33093268 1.244408 4.4433374
0.33198947 1.2748646 4.4086704
0.32230785 1.2698059 4.3745904
0.32691243 1.2964941 4.3514214
0.32186469 1.2962973 4.3191557
0.33120576 1.3300885 4.2896852
0.31235346 1.3456186 4.2818146
0.29999807 1.3603988 4.2379494
0.30782968 1.3605627 4.1895928
0.31141168 1.3785615 4.1767325
0.31349009 1.3932443 4.1533141
0.31305751 1.4104741 4.1116519
0.302719 1.4154246 4.0803652
0.31173953 1.4344337 4.0687318
0.29883674 1.4529735 4.0168676
0.2970666 1.4610325 4.0212407
0.30209437 1.4688127 3.9889657
0.29386544 1.4731435 3.9594777
0.2964043 1.4807878 3.9226742
0.30051357 1.5003299 3.9062037
0.28974777 1.5104846 3.8632817
0.29016736 1.5102057 3.8606179
0.28432518 1.5206389 3.8460746
0.29442427 1.540403 3.8115964
0.28772688 1.5687784 3.8097363
0.28147411 1.5780129 3.7451451
0.28471854 1.5813156 3.7471209
0.27661467 1.6096617 3.7215962
0.37474656 1.0091023 4.9715805
0.37214005 1.0282584 4.9378085
0.36763844 1.0509559 4.8839488
0.37559977 1.0678883 4.866159
0.37588081 1.096272 4.8068385
0.37400287 1.1158381 4.7698359
0.34515768 1.1150478 4.748589
0.35991302 1.1420931 4.6952338
0.36121055 1.1493672 4.643568
0.35533446 1.1808945 4.6151175
0.36868882 1.1741562 4.6054797
0.3392624 1.2024361 4.5611553
0.3410292 1.2189302 4.5304251
0.33950534 1.2472808 4.4761825
0.35263571 1.2373854 4.4540868
0.36827311 1.2595156 4.4168725
0.32593331 1.2686238 4.3908744
0.3462249 1.280365 4.3608479
0.32273966 1.3042171 4.3313918
0.32073796 1.3383455 4.2897563
0.31694323 1.3154843 4.2623525
0.33014351 1.3567358 4.2347097
0.31254476 1.3766365 4.204381
0.31962302 1.3973963 4.1727195
0.31003895 1.3886939 4.1680393
0.32833186 1.3949397 4.1329637
0.332335 1.4269207 4.1163354
0.30470824 1.4120427 4.053411
0.31117329 1.4393107 4.0452824
0.31376684 1.4612479 4.0198917
0.31088108 1.4584585 3.9835672
0.29604107 1.4948425 3.9757967
0.29929823 1.4992515 3.9260001
0.30509931 1.4892027 3.913923
0.31183288 1.5041341 3.8845618
0.29528847 1.524086 3.887367
0.30387926 1.543396 3.8542025
0.29536605 1.533769 3.8053322
0.28872404 1.5543872 3.7937839
0.29588488 1.5820065 3.7439826
0.28015202 1.5807769 3.7751389
0.28821504 1.595685 3.7121387
0.38958952 1.0149602 4.973969
0.40786162 1.0355577 4.9252863
0.37669364 1.0428227 4.8982601
0.36430055 1.0759608 4.8596034
0.37398446 1.0954155 4.8158641
0.37529489 1.1109143 4.7778153
0.37176642 1.1180731 4.7423778
0.37753439 1.1309271 4.7208676
0.37847489 1.1550721 4.6891661
0.33055753 1.1832832 4.6409073
0.35065365 1.1819407 4.6079249
0.34454057 1.2146599 4.5896916
0.35043475 1.1940656 4.527144
0.36340359 1.2269756 4.5053697
0.33672521 1.2341082 4.4763002
0.36131313 1.2564664 4.4412184
0.33065495 1.2785604 4.4073033
0.34731245 1.2811652 4.3786163
0.34711823 1.3117537 4.3719959
0.3137944 1.3051987 4.320477
0.3213222 1.3361536 4.2754273
0.33279374 1.340135 4.2577224
0.34281316 1.3625951 4.2141023
0.31507003 1.3933064 4.192997
0.32195675 1.3995411 4.1734791
0.33707881 1.4085391 4.1335216
0.32407048 1.433107 4.1000347
0.30395263 1.4210185 4.0903907
0.32017255 1.4331486 4.06457
0.2989873 1.4592551 4.0310001
0.31723988 1.4605525 4.0077887
0.33347893 1.4727466 3.9758379
0.3233079 1.4799584 3.9494491
0.3075763 1.5073969 3.9275844
0.3044191 1.5261286 3.9111557
0.29603228 1.5204357 3.8782101
0.29494745 1.5154474 3.8537555
0.30481672 1.561329 3.8250949
0.28336981 1.5525508 3.8156967
0.31542841 1.562531 3.7889366
0.28247368 1.5606382 3.7714927
0.283831 1.5856806 3.730547
0.4022693 1.0073259 4.9941416
0.39417386 1.0184922 4.9634161
0.3910805 1.0388619 4.8939281
0.40456811 1.0570217 4.8715639
0.39533851 1.0614119 4.8200212
0.38205752 1.0994244 4.7767086
0.39006224 1.1320258 4.7611051
0.38526788 1.1227916 4.7076893
0.39713663 1.1334507 4.6778626
0.36348578 1.1597201 4.645524
0.38456476 1.1957484 4.6234379
0.37111267 1.2043098 4.5883365
0.37538302 1.209089 4.5443411
0.35601643 1.2300553 4.5176067
0.35272935 1.2247699 4.4884953
0.3723599 1.2539209 4.4531798
0.35024476 1.2604359 4.3798132
0.34467676 1.2862732 4.3901048
0.34196365 1.2998973 4.3620834
0.35384822 1.3184836 4.3200798
0.36128145 1.3309503 4.2854228
0.34292912 1.3315027 4.2632065
0.3277905 1.3522762 4.2408566
0.354761 1.3648746 4.2052207
0.32068405 1.3573121 4.1855669
0.32276079 1.3859222 4.1370926
0.31131387 1.4218246 4.117753
0.34105304 1.4323227 4.094985
0.31157115 1.4233668 4.0619082
0.30771992 1.4292177 4.0257454
0.3214058 1.4460527 4.0062327
0.30742261 1.4612523 3.9949698
0.3334595 1.4814503 3.9410317
0.31342721 1.4755005 3.917872
0.30011824 1.485839 3.9174106
0.31488693 1.5173756 3.8813753
0.30271268 1.5252032 3.8573172
0.32179654 1.5539613 3.8330369
0.30403298 1.5512015 3.8128731
0.28261042 1.5524883 3.7931323
0.31174254 1.5618269 3.7536147
0.30083293 1.5850161 3.7384439
0.28419706 1.5752424 3.7088001
0.39969787 1.008122 4.9804702
0.38504642 1.0492913 4.9344831
0.39965385 1.066918 4.8926997
0.39186293 1.077997 4.8463683
0.39892215 1.0705222 4.8097181
0.38293794 1.1220583 4.7742329
0.39348546 1.1188033 4.7408199
0.38644749 1.1372346 4.6834488
0.38640025 1.1618739 4.6832433
0.37777308 1.1727617 4.6305971
0.37055913 1.1936663 4.5931506
0.38658917 1.2080495 4.5494013
0.36069506 1.230828 4.5172911
0.38316521 1.2351646 4.4960332
0.38767189 1.2436594 4.4689202
0.35752454 1.278927 4.4194975
0.37824404 1.2666665 4.3746958
0.3670885 1.2968714 4.3608475
0.36358508 1.3136374 4.3457975
0.36411235 1.3276091 4.2960925
0.36134589 1.3365461 4.2596354
0.33770305 1.3381385 4.2242198
0.34197205 1.3740723 4.2270751
0.34518129 1.3799747 4.1840043
0.36085826 1.3991462 4.1563516
0.34953758 1.396925 4.1231198
0.34491718 1.3949854 4.1038327
0.32246947 1.4427625 4.0755372
0.33970198 1.4160546 4.0308638
0.33201784 1.4413482 3.9811099
0.31470615 1.4654534 3.9907541
0.3155629 1.4924889 3.9701991
0.31268054 1.4865379 3.9580145
0.34109724 1.5195163 3.9187586
0.31977376 1.5029663 3.885149
0.31169245 1.5248306 3.8740382
0.31552267 1.5278773 3.8493032
0.31026155 1.5397614 3.8235366
0.30990925 1.5507462 3.8066161
0.30263957 1.5783442 3.7685061
0.30604371 1.57665 3.7537231
0.29675722 1.5962058 3.7383907
0.417781 0.99835342 4.9711833
0.41351601 1.0221044 4.9351497
0.41816947 1.0571557 4.9035435
0.41681334 1.066635 4.8670287
0.39275247 1.0752748 4.8116941
0.39841551 1.0937408 4.7807813
0.40358716 1.1195519 4.7428699
0.3799794 1.1418266 4.7316241
0.40073845 1.162344 4.6837516
0.39351174 1.16452 4.6319137
0.38620907 1.185729 4.598474
0.37699193 1.2058659 4.5742474
0.37746206 1.2239655 4.5337238
0.39309183 1.2331156 4.5072494
0.3736566 1.2152753 4.4866552
0.3739419 1.2640707 4.4220567
0.35851344 1.2540841 4.3971066
0.3635444 1.2744638 4.3893991
0.3701953 1.3100121 4.3364124
0.3519989 1.3301458 4.3180065
0.35294697 1.317839 4.2827229
0.37005317 1.3558681 4.2472644
0.36386347 1.3568444 4.223516
0.34765834 1.3653146 4.1867785
0.35371399 1.4086624 4.1714125
0.34409684 1.4060779 4.1481872
0.34554547 1.4180048 4.1131835
0.36709833 1.4276822 4.0690699
0.31400627 1.4313675 4.0561476
0.32332778 1.4457175 4.0447721
0.32651922 1.4630897 4.0059528
0.32887328 1.4888663 3.9954197
0.3376272 1.4914417 3.9457364
0.33437419 1.4737369 3.9319699
0.31204399 1.5259461 3.8925056
0.32002816 1.5104196 3.8726141
0.33192924 1.5425869 3.8444645
0.31875384 1.5524261 3.8109126
0.32940212 1.5564106 3.7896299
0.31930533 1.5705857 3.779645
0.3219699 1.5826778 3.7410851
0.30568522 1.5798599 3.7404435
0.4435432 1.016867 4.9985995
0.41885942 1.0277778 4.9682055
0.42721933 1.0294166 4.9105253
0.43422967 1.0742806 4.8690357
0.41334635 1.0738752 4.843781
0.39506695 1.1000371 4.7857456
0.40625274 1.1290166 4.7579627
0.38474572 1.1353562 4.7215409
0.38725612 1.1581706 4.6900883
0.40375113 1.1497351 4.6357765
0.38982716 1.1877588 4.6102033
0.39866254 1.1966465 4.5742254
0.40235603 1.2073526 4.5475969
0.3974719 1.2184381 4.5191522
0.36781889 1.2452602 4.4800186
0.39580184 1.2636902 4.4467745
0.38864776 1.2633324 4.4254746
0.37639976 1.2959254 4.3839564
0.37326342 1.2914479 4.3583641
0.373862 1.3190662 4.3147917
0.35572633 1.3306152 4.2899671
0.38043958 1.3255653 4.2809215
0.35092613 1.3758373 4.23734
0.3576892 1.3634825 4.2008224
0.35968903 1.3821179 4.1605902
0.36540297 1.3938129 4.1531324
0.34189621 1.414559 4.1335816
0.36430919 1.4139402 4.0828972
0.34047663 1.4321964 4.0638947
0.34192818 1.4551725 4.0467525
0.33657768 1.4525517 4.0114408
0.35777056 1.4689382 3.9856994
0.33242959 1.4863343 3.9436772
0.35301661 1.4820927 3.9332452
0.34498084 1.505388 3.8980341
0.33260113 1.5098027 3.8792164
0.3059755 1.5365217 3.8503318
0.3260189 1.5402137 3.830493
0.33487722 1.5523101 3.8130615
0.33160412 1.5584018 3.7890675
0.3273384 1.5629063 3.7442281
0.32805842 1.559108 3.7428126
0.31486353 1.5960379 3.7090797
0.42884803 1.0332357 4.9638281
0.43388182 1.0271143 4.9314356
0.4292101 1.0596272 4.8837004
0.42622235 1.0695702 4.8581481
0.41107813 1.0920403 4.800281
0.41956973 1.105973 4.7760448
0.39950347 1.1178411 4.7230792
0.40284741 1.1639001 4.7014265
0.42938289 1.1559986 4.6712179
0.40897012 1.1731092 4.6379137
0.40143776 1.1804619 4.6010714
0.38813996 1.1966363 4.5530829
0.40051135 1.2237629 4.5125365
0.39253664 1.2307097 4.4848514
0.4042272 1.2345982 4.4688692
0.3911913 1.2596064 4.4259672
0.38236904 1.287086 4.3800378
0.39443812 1.2930615 4.3603292
0.38813198 1.3111924 4.3321981
0.37111267 1.3482226 4.3018007
0.37248197 1.3424541 4.2656617
0.3732971 1.3344398 4.2561026
0.36756781 1.3760765 4.2232466
0.35930261 1.3698306 4.181787
0.37525868 1.4003637 4.140316
0.36371043 1.4022491 4.1209278
0.3668859 1.4092668 4.1070852
0.36981636 1.4305873 4.0857615
0.35463324 1.4291418 4.0383873
0.36464834 1.4662931 4.0389123
0.34529704 1.4550339 3.9859273
0.35115805 1.4764025 3.9669693
0.34618008 1.4932454 3.9570618
0.35071832 1.5190307 3.9351625
0.34702933 1.5072747 3.9025791
0.36042732 1.5348736 3.8684828
0.33721915 1.5362071 3.843293
0.33500069 1.5581939 3.7965124
0.33250266 1.5531498 3.7970021
0.31767783 1.5769581 3.777344
0.32559735 1.5699656 3.7599976
0.33153662 1.6038783 3.7335625
0.43997338 1.0184714 4.9941344
0.44685042 1.0269724 4.9491568
0.43695393 1.052662 4.9164004
0.4229213 1.0623702 4.8714671
0.4258289 1.0962287 4.8212218
0.42034426 1.0964817 4.7708077
0.40901536 1.1183112 4.7355795
0.43456438 1.1182996 4.730854
0.40080827 1.1524634 4.6738467
0.4139702 1.1626936 4.622601
0.39197513 1.1742765 4.6153297
0.40276253 1.1999854 4.5633006
0.41165823 1.2116059 4.5254326
0.39521912 1.2297813 4.5054607
0.40171343 1.2271882 4.4750051
0.40917328 1.246418 4.4016647
0.39156836 1.2611923 4.3916907
0.3995131 1.2989376 4.3723683
0.38677132 1.3156286 4.3565569
0.3866542 1.3236338 4.3012919
0.3943252 1.3393781 4.2977023
0.37235555 1.3549134 4.2564774
0.3914772 1.3702632 4.2321897
0.3659941 1.3707107 4.1975174
0.34647152 1.3904417 4.1703067
0.36826143 1.3770233 4.146162
0.36992878 1.4193956 4.1183538
0.36894336 1.4101068 4.0853949
0.34913835 1.4373884 4.0554771
0.35365939 1.4641913 4.0318794
0.33424509 1.463572 4.0013175
0.35327515 1.4926417 3.9717655
0.34221384 1.4788389 3.9546812
0.3539716 1.4887025 3.9259608
0.36304715 1.5276051 3.9141555
0.35843593 1.5225283 3.8924365
0.34228238 1.5252862 3.8507335
0.33254677 1.5490689 3.8185666
0.34402132 1.5411214 3.8022408
0.3475081 1.5881093 3.778019
0.33891681 1.5750968 3.7642682
0.32837307 1.5825311 3.7382278
0.44831234 1.0226237 4.9918714
0.42834651 1.0251832 4.9612861
0.42833975 1.0417675 4.9074168
0.44372395 1.0545291 4.8700032
0.44181409 1.0649086 4.8482227
0.43208382 1.1107801 4.7917867
0.43139082 1.101095 4.762022
0.40233487 1.1213915 4.7209725
0.4251076 1.150431 4.6922579
0.4127624 1.1668963 4.6429319
0.41601843 1.178002 4.6367831
0.40626603 1.1853019 4.5811853
0.41802296 1.212079 4.5460987
0.40130049 1.2123686 4.5182414
0.39903963 1.2477652 4.4696541
0.42152172 1.2638414 4.4412293
0.4011361 1.2643485 4.4147739
0.40097848 1.313768 4.3764186
0.40144819 1.2872725 4.3507538
0.40046555 1.3188616 4.3126259
0.3854093 1.3238029 4.2804761
0.39006752 1.3333367 4.2739477
0.39475232 1.3676616 4.2348185
0.3790307 1.3719275 4.1914601
0.3800416 1.374964 4.1844497
0.3875502 1.3962318 4.1521931
0.37963182 1.3853464 4.1155262
0.38575238 1.4317839 4.0965295
0.38868156 1.4261212 4.0714116
0.36681545 1.4376084 4.040062
0.34876049 1.4661285 3.9745636
0.36941069 1.462132 3.9864423
0.36284384 1.4673191 3.9465272
0.36478215 1.489006 3.950186
0.36526757 1.5012497 3.9180243
0.35198778 1.5260102 3.8842728
0.35032389 1.5360374 3.8591132
0.34060147 1.5272199 3.8279042
0.34996036 1.5531331 3.8119481
0.3484402 1.5611601 3.8013625
0.34906319 1.5715709 3.7558036
0.34387097 1.5920368 3.753067
0.34596422 1.5882941 3.707284
0.43362868 1.0090542 4.9865012
0.46793064 1.0501226 4.9351039
0.45431748 1.0617545 4.8984618
0.45204034 1.0822083 4.8654852
0.46475014 1.0836391 4.8104873
0.44696623 1.1105658 4.7637253
0.43157554 1.1207373 4.7499681
0.45565844 1.1208122 4.694272
0.43416294 1.1376687 4.6553154
0.4326658 1.1599607 4.6294699
0.41502348 1.1850572 4.5980978
0.43694729 1.2075614 4.5702715
0.4383457 1.2157605 4.5148821
0.40256882 1.2242781 4.4723673
0.4220705 1.2550801 4.4454794
0.3931272 1.264168 4.4300871
0.40653819 1.284681 4.3955135
0.40638897 1.272364 4.3670068
0.38909954 1.3054277 4.3309155
0.38251606 1.3309174 4.2968154
0.38603729 1.3338602 4.269403
0.40003362 1.3472056 4.2411327
0.36839467 1.365554 4.211915
0.39030439 1.3784776 4.1834688
0.40292498 1.368 4.1721811
0.37290913 1.3957872 4.1410441
0.38198847 1.4232973 4.0937881
0.38360783 1.4288635 4.0685229
0.39476919 1.4377489 4.0516429
0.36000636 1.4589392 4.0068879
0.36915162 1.4588544 3.9943607
0.34502581 1.4626023 3.9698677
0.37886658 1.4811845 3.9370489
0.36630711 1.4887304 3.9116249
0.3663981 1.5175879 3.8956637
0.3609184 1.5279776 3.8491282
0.36357173 1.5249197 3.8365092
0.34404373 1.5544924 3.832108
0.34122449 1.5398901 3.7923172
0.35038239 1.5640286 3.7561822
0.34712535 1.5850712 3.7685652
0.33921227 1.5757126 3.7317371
0.46685588 1.0247709 4.9927168
0.47014844 1.0159235 4.9414864
0.4839339 1.0420934 4.9139209
0.45044506 1.0773612 4.8593302
0.45230761 1.0794569 4.8155022
0.43554366 1.0990154 4.7941132
0.44497678 1.1228768 4.746942
0.45956597 1.1295539 4.7109184
0.436167 1.1446851 4.6810751
0.43940794 1.1620442 4.6283846
0.42402783 1.1802047 4.6067524
0.42529926 1.2164587 4.5729198
0.41110075 1.2310026 4.5393262
0.43030602 1.2328392 4.4954281
0.43475378 1.2440916 4.4540725
0.42769498 1.2715111 4.4381065
0.41612962 1.2693803 4.3907723
0.42696291 1.282353 4.3854342
0.40027919 1.3166599 4.3556042
0.40395036 1.3119332 4.3109932
0.39569741 1.3438535 4.274045
0.3989549 1.339893 4.2627988
0.40159261 1.3721278 4.2257347
0.39806068 1.3763169 4.2045655
0.40080008 1.3934443 4.185039
0.38550708 1.3987288 4.1480937
0.41416511 1.4047874 4.1040359
0.37707901 1.4241471 4.0838141
0.38908264 1.4379588 4.0661054
0.3695806 1.4410659 4.035347
0.37765944 1.4526141 4.0199146
0.37480927 1.460583 3.9811962
0.39581951 1.4962064 3.9374349
0.37051487 1.4843724 3.9110763
0.37640971 1.5113457 3.8997128
0.37416703 1.5216792 3.8753765
0.35455695 1.5447781 3.8540313
0.36091447 1.5422713 3.8265049
0.38221681 1.5561007 3.8029547
0.34190074 1.5550985 3.7893324
0.35626552 1.5839124 3.7566712
0.36860117 1.5950092 3.7287633
0.49163011 1.000066 5.0085444
0.47271779 1.0376111 4.9465904
0.47211248 1.0409218 4.9112282
0.46035889 1.0695943 4.8788586
0.44941545 1.0711352 4.8335395
0.4629398 1.0944221 4.7869444
0.46760833 1.1229962 4.7568755
0.45598686 1.1305934 4.7420225
0.46362939 1.1625932 4.6853971
0.43645489 1.1652265 4.6362476
0.44999063 1.1913153 4.6093059
0.43888208 1.2031667 4.5864697
0.43092197 1.2114328 4.549983
0.43154186 1.230785 4.5169816
0.4323588 1.2433733 4.4800019
0.41997969 1.2471159 4.4577365
0.44312271 1.2819586 4.4016042
0.41808748 1.2736785 4.3837361
0.41124558 1.2870337 4.3556652
0.40901032 1.3047054 4.3365064
0.42714247 1.308679 4.280417
0.41317952 1.3436911 4.2678876
0.4197433 1.3473314 4.232965
0.41740704 1.3734883 4.1944089
0.41197923 1.3825254 4.1686325
0.39920625 1.3796079 4.1665792
0.39167887 1.4357477 4.0996251
0.37558898 1.4150088 4.0902958
0.38376614 1.4300224 4.0490456
0.3900806 1.4358162 4.0567513
0.40506348 1.4614421 4.0149117
0.38551989 1.4515594 3.9900622
0.36347347 1.5058409 3.9562352
0.3762444 1.4833418 3.9368012
0.38055861 1.5195619 3.9074731
0.38283747 1.5233006 3.8688948
0.36965424 1.5251483 3.8712425
0.36708629 1.5306726 3.8200507
0.365154 1.5404956 3.7992048
0.36173645 1.5537186 3.7721322
0.35617444 1.578488 3.7630801
0.36663029 1.5797166 3.7437541
0.35523686 1.5835208 3.702729
0.47691423 1.0198301 4.9599624
0.49577886 1.0235521 4.9248514
0.47316191 1.0500972 4.8696318
0.48018786 1.076332 4.8662291
0.48355186 1.0941495 4.8052583
0.47617841 1.1120132 4.7898598
0.47397044 1.1148285 4.7552285
0.45325637 1.1469606 4.6973739
0.47662702 1.146891 4.6668744
0.44782555 1.1657561 4.646142
0.44962785 1.1989849 4.6057692
0.438301 1.1901767 4.5540733
0.43854821 1.2270882 4.5166187
0.45100456 1.2366776 4.4909763
0.4441492 1.2387657 4.4511385
0.43117929 1.2587335 4.4376073
0.42934281 1.2698025 4.3829241
0.43020949 1.2927512 4.3681536
0.42698392 1.3200938 4.3334484
0.42034751 1.325507 4.3146243
0.41914746 1.3272769 4.2766004
0.4129656 1.3584527 4.2387295
0.40726477 1.3616574 4.2135072
0.40759856 1.3863163 4.1659641
0.42178527 1.4037114 4.1384654
0.41304722 1.4046288 4.1229825
0.41519728 1.4103113 4.0990481
0.39618233 1.4403466 4.0868111
0.39193365 1.4452978 4.0431662
0.40151492 1.4612888 4.0229411
0.38941538 1.4665927 3.9831381
0.39255214 1.4771109 3.969007
0.38009918 1.4745789 3.9288821
0.39347503 1.5195669 3.9158874
0.37724063 1.5175726 3.8816414
0.38519537 1.5302188 3.8629725
0.38999563 1.5388139 3.8579135
0.38872543 1.5463539 3.8089306
0.3621802 1.5570415 3.799752
0.37309396 1.5731902 3.7742312
0.37075758 1.5907414 3.7549086
0.36556977 1.5835809 3.715615
0.5000062 1.005507 4.9823785
0.49206898 1.0050887 4.9363956
0.4752138 1.0361137 4.9023643
0.47349983 1.0618536 4.8686104
0.47151721 1.067829 4.8159676
0.48756737 1.1112432 4.7836514
0.46844688 1.121489 4.7602525
0.49313557 1.152915 4.7208896
0.47660488 1.1616087 4.6806464
0.47319463 1.17267 4.6446214
0.46088839 1.1943749 4.6093779
0.44419184 1.2172967 4.5848198
0.46055827 1.2027946 4.5441017
0.4427467 1.2405242 4.4921498
0.45233592 1.2438538 4.4725699
0.46541286 1.2752919 4.4265709
0.43798438 1.2774237 4.4180541
0.45209107 1.3100013 4.3753715
0.42891166 1.2974206 4.3416028
0.43169957 1.3190224 4.3230314
0.43109637 1.3245058 4.2760639
0.45041966 1.3351785 4.2438221
0.40847021 1.3582908 4.2028832
0.42558414 1.3630607 4.1965003
0.41279098 1.3600587 4.1481495
0.42219707 1.3960221 4.1330132
0.40519094 1.3970703 4.1112766
0.39677003 1.4207609 4.076777
0.40435585 1.4335437 4.0556984
0.40474078 1.4418632 4.0308371
0.40786284 1.4756719 3.9991868
0.39928541 1.4654135 3.9578404
0.40179548 1.4954181 3.9666228
0.37785035 1.5112939 3.9408934
0.38449234 1.5183501 3.8991716
0.37041885 1.5202444 3.8730447
0.37131974 1.5327221 3.8577366
0.38063356 1.5583901 3.8461785
0.38652781 1.5559924 3.7840476
0.36258718 1.566106 3.7825398
0.37104473 1.5719056 3.7459764
0.37215891 1.5911305 3.7351942
0.50728875 1.0169415 5.0020237
0.50952351 1.0186975 4.945879
0.48687735 1.039194 4.9230003
0.51055384 1.0621016 4.8654351
0.48487952 1.0778048 4.8536606
0.50273299 1.0992383 4.816916
0.48686686 1.1237607 4.7723327
0.47422683 1.1157204 4.7130404
0.47594693 1.1566767 4.6869335
0.46131986 1.1652248 4.6444297
0.46842492 1.1817486 4.6319299
0.47988611 1.1903753 4.587388
0.46094865 1.2112392 4.5727472
0.47725067 1.2302428 4.5261502
0.46494651 1.2435745 4.4754353
0.45070833 1.2610036 4.4530759
0.44475988 1.2865 4.4101353
0.43184531 1.2781805 4.3911729
0.43108222 1.2704918 4.3676453
0.43910474 1.3074323 4.3080273
0.42415851 1.3231331 4.297812
0.43794227 1.3419693 4.268609
0.43363729 1.3600187 4.2255573
0.42793742 1.363873 4.204083
0.42264658 1.3670287 4.1926293
0.4205566 1.4077826 4.1495852
0.42661875 1.4142207 4.1198282
0.41371706 1.40642 4.0939307
0.41584441 1.4405463 4.0699606
0.40905625 1.4416496 4.0365467
0.41815326 1.4775496 4.0170836
0.40286696 1.4882224 3.9911623
0.41355574 1.4793257 3.9791856
0.38877937 1.4952042 3.9363523
0.41065317 1.5045801 3.9022789
0.39491498 1.529711 3.8724594
0.38785574 1.545573 3.8458977
0.40204906 1.5284169 3.8357966
0.3797226 1.5545338 3.8122587
0.41006717 1.5643426 3.7950113
0.3876048 1.575824 3.765435
0.38140839 1.5940245 3.7322638
0.34938985 1.5944141 3.7183485
0.50909305 1.0221895 4.9745746
0.51235801 1.0257671 4.9227347
0.50203574 1.0575064 4.8934565
0.48624647 1.0716558 4.8601046
0.49176264 1.0972021 4.8185921
0.48618785 1.0959576 4.7553596
0.47915182 1.1251695 4.7387862
0.49312395 1.1404597 4.7079115
0.48627788 1.1701157 4.6541457
0.4992539 1.1551906 4.6380982
0.47445321 1.1770366 4.605989
0.47663897 1.2057347 4.5651178
0.47944412 1.2268364 4.518878
0.4678407 1.2298821 4.5023727
0.4572511 1.2694833 4.4458461
0.46698716 1.2767392 4.4351583
0.44794428 1.2897555 4.3896575
0.45184106 1.3014777 4.3698459
0.45278865 1.3339043 4.337018
0.43524253 1.326753 4.2961588
0.43599823 1.3310114 4.2593474
0.45851049 1.3453386 4.2377
0.42454031 1.3489362 4.2107978
0.44007531 1.3850133 4.1917992
0.42592302 1.3913847 4.1511455
0.41445643 1.4018016 4.1239491
0.42936161 1.3931404 4.1047583
0.412662 1.4350616 4.0827494
0.43192738 1.428858 4.0611739
0.41790012 1.4458661 4.0076261
0.3925142 1.4720284 3.9656501
0.40568602 1.4801401 3.9568074
0.42657602 1.4894346 3.9416893
0.42536831 1.4976848 3.9020813
0.41270864 1.5091376 3.8944581
0.38289854 1.5177114 3.8622901
0.42596653 1.5324829 3.8465245
0.3941474 1.5374532 3.8350575
0.40060318 1.5515677 3.815424
0.39946067 1.5612426 3.7709317
0.38404417 1.5711726 3.7747259
0.38140452 1.6003735 3.717957
0.51311278 1.0111783 4.9848361
0.523076 1.0073322 4.9382358
0.51530409 1.055207 4.9087453
0.54365802 1.065712 4.86518
0.51741445 1.0736144 4.8215384
0.49941483 1.1079881 4.7837887
0.49712646 1.1369462 4.7661271
0.50683069 1.1339957 4.7150512
0.49239558 1.1579717 4.667737
0.48785907 1.1642256 4.6519384
0.51390439 1.1937445 4.5977287
0.49729893 1.2118516 4.5865188
0.47132236 1.2168376 4.5474072
0.46226338 1.2330244 4.4944062
0.46708766 1.2509952 4.4634619
0.46249098 1.2794281 4.4252715
0.46321991 1.2812587 4.4147096
0.46626762 1.3011407 4.3780112
0.47319642 1.304207 4.3593187
0.45483616 1.3044082 4.3251004
0.45686382 1.3441055 4.2795658
0.45175415 1.3378479 4.2481155
0.44677827 1.3483921 4.2364902
0.4443948 1.3766195 4.1961036
0.44153181 1.393997 4.1648974
0.43176529 1.4086081 4.1521273
0.44339743 1.4054984 4.1108952
0.44410878 1.4315177 4.0891175
0.42207327 1.4309114 4.045671
0.41822115 1.4367278 4.0342464
0.42521176 1.4790926 4.0038905
0.43705031 1.4738427 3.9590793
0.43037352 1.498939 3.9491832
0.4131448 1.4900285 3.9095793
0.41999862 1.5045915 3.8902674
0.40580192 1.5213581 3.8752131
0.41243434 1.5454947 3.8447244
0.40739059 1.5450262 3.8323307
0.40722322 1.5573115 3.8017476
0.40064362 1.5603205 3.7809746
0.39760169 1.5857575 3.7602522
0.3985213 1.5961469 3.7234402
0.54276383 1.0013539 4.9866138
0.53161788 1.0318998 4.9383087
0.52175665 1.0359129 4.9100199
0.52118295 1.0556049 4.872407
0.5194031 1.076497 4.8315797
0.5026055 1.0990019 4.7913146
0.50598055 1.1194382 4.7426171
0.50857544 1.1421953 4.717607
0.50494206 1.1483047 4.7001863
0.51150936 1.1717368 4.6535697
0.48362419 1.1812457 4.6039615
0.48552889 1.2062577 4.5823865
0.50501013 1.2165987 4.5535727
0.48785025 1.222635 4.5365181
0.47311229 1.2485284 4.4821472
0.47719216 1.2680193 4.4416213
0.47246256 1.2761124 4.4089704
0.47686195 1.2892526 4.385221
0.48777279 1.3071626 4.3334298
0.46600437 1.312506 4.3268952
0.45494831 1.3408518 4.2858725
0.46003905 1.3318528 4.2832813
0.45676297 1.3571793 4.2355623
0.45815161 1.3537626 4.192935
0.4528743 1.3992203 4.1706967
0.44788584 1.4065036 4.1441016
0.44487578 1.387302 4.1220126
0.43314862 1.4168227 4.1013417
0.43140987 1.4676073 4.0621881
0.42015418 1.4529216 4.034976
0.44316769 1.4568424 4.0157809
0.42648184 1.4628946 4.0064464
0.4193379 1.4909258 3.9569693
0.425253 1.4911785 3.9222138
0.41895425 1.5019561 3.9076324
0.42298785 1.5209097 3.8689396
0.41492933 1.5221629 3.8615549
0.39218408 1.5341024 3.8429539
0.40530115 1.5579022 3.8195603
0.41891474 1.5486969 3.7838335
0.38712922 1.5614915 3.782099
0.39951807 1.5976269 3.7409987
0.37834352 1.5903038 3.7060609
0.53246707 1.0289109 4.958097
0.54200798 1.0323939 4.914906
0.54648477 1.05686 4.8869209
0.51901495 1.0682242 4.8595171
0.54498601 1.0772369 4.800786
0.51548767 1.1150167 4.7674456
0.51067567 1.1309677 4.7409291
0.50507128 1.14306 4.7133727
0.5116539 1.1468452 4.6559429
0.49198407 1.1752393 4.635325
0.50710464 1.1944555 4.612524
0.497908 1.2037449 4.5513778
0.47503021 1.2181305 4.5182004
0.48708227 1.2285748 4.4825273
0.47902161 1.2455485 4.4520421
0.46693647 1.2514858 4.4313927
0.46968111 1.2625011 4.381166
0.48435977 1.3112588 4.3640566
0.47456753 1.31723 4.3367219
0.46837845 1.334048 4.3175731
0.47478056 1.3369273 4.2581787
0.46462968 1.3305928 4.2261777
0.46576577 1.3583785 4.202599
0.46410632 1.3684232 4.1860714
0.45036346 1.3836241 4.1479793
0.43602845 1.4013427 4.1181598
0.43865454 1.4202942 4.1041274
0.44484365 1.4360337 4.0834684
0.46538076 1.4529961 4.0691304
0.43940821 1.451327 4.0292697
0.42651585 1.4684795 3.973846
0.43568933 1.492825 3.9697974
0.43028569 1.4851942 3.9500883
0.43403569 1.5046958 3.9136062
0.42276135 1.5121663 3.8856163
0.43362695 1.5157918 3.8865671
0.4191795 1.5287293 3.832372
0.42938337 1.5274739 3.828409
0.42662981 1.5718348 3.7970185
0.396474 1.5730172 3.764272
0.42382425 1.5713009 3.7539635
0.38557011 1.5810983 3.7266085
0.55095923 0.98454255 4.974915
0.56077147 1.0336899 4.9374151
0.53781164 1.0398846 4.8815012
0.53823179 1.0625072 4.8536806
0.53676337 1.0855223 4.8095689
0.51895148 1.1129296 4.7795973
0.51736206 1.1139998 4.7597418
0.52867907 1.1236098 4.704555
0.52357996 1.1547471 4.6810431
0.50700736 1.1654645 4.6325574
0.50085449 1.191431 4.5986147
0.49265745 1.2161386 4.5573082
0.52593648 1.2200732 4.5353227
0.5089075 1.2070926 4.4963851
0.49651024 1.2409678 4.4835477
0.50496191 1.2423359 4.4515071
0.49594164 1.2581871 4.4051633
0.48323768 1.2822887 4.3756356
0.48161933 1.3063747 4.3539186
0.47533277 1.3217231 4.3023162
0.47444797 1.3149592 4.266561
0.46638727 1.3590935 4.2428422
0.47233903 1.3651551 4.2179952
0.47631854 1.3653601 4.2021561
0.46846154 1.3814613 4.1577177
0.46808621 1.4009845 4.1376643
0.46362939 1.4119587 4.0854988
