-16.011652 0.0 97.143486 151
-16.027782 0.0 97.10064 185
-16.045656 0.0 97.07204 237
-16.064152 0.0 97.048515 306
-16.081507 0.0 97.01588 329
-16.100113 0.0 96.9934 356
-16.11846 0.0 96.968895 360
-16.13579 0.0 96.936295 356
-16.153744 0.0 96.908775 332
-16.173204 0.0 96.893425 293
-16.19329 0.0 96.88313 221
-16.211857 0.0 96.8607 147
-16.229021 0.0 96.82714 99
-16.244278 0.0 96.77844 92
-16.261044 0.0 96.7419 107
-16.278816 0.0 96.71345 128
-16.297087 0.0 96.68906 135
-16.31446 0.0 96.65761 159
-16.332336 0.0 96.63021 213
-16.350586 0.0 96.60585 248
-16.366533 0.0 96.563354 265
-16.382217 0.0 96.51888 318
-16.399164 0.0 96.4845 350
-16.41687 0.0 96.45617 356
-16.434694 0.0 96.428856 333
-16.45251 0.0 96.40156 320
-16.470064 0.0 96.37226 302
-16.488504 0.0 96.350006 285
-16.506811 0.0 96.32676 311
-16.525753 0.0 96.30853 367
-16.544687 0.0 96.29031 348
-16.562717 0.0 96.26508 326
-16.581127 0.0 96.24287 307
-16.599657 0.0 96.221664 236
-16.617022 0.0 96.19145 193
-16.633604 0.0 96.15524 176
-16.64966 0.0 96.11506 194
-16.666739 0.0 96.08289 242
-16.684584 0.0 96.05675 295
-16.702423 0.0 96.03061 329
-16.720253 0.0 96.00448 335
-16.738077 0.0 95.97836 356
-16.75667 0.0 95.95825 369
-16.774998 0.0 95.93614 366
-16.79306 0.0 95.912056 372
-16.811504 0.0 95.89096 369
-16.828379 0.0 95.85792 333
-16.843552 0.0 95.81194 301
-16.860018 0.0 95.775955 301
-16.876995 0.0 95.74397 327
-16.894485 0.0 95.71597 364
-16.913536 0.0 95.69992 388
-16.931143 0.0 95.67294 391
-16.947954 0.0 95.640015 401
-16.96515 0.0 95.61008 406
-16.982471 0.0 95.581154 384
-16.99952 0.0 95.550255 350
-17.015772 0.0 95.51343 338
-17.031488 0.0 95.47266 320
-17.046404 0.0 95.42597 319
-17.061573 0.0 95.3813 307
-17.077389 0.0 95.341606 328
-17.094378 0.0 95.31082 352
-17.111887 0.0 95.28401 303
-17.130312 0.0 95.264114 242
-17.149391 0.0 95.24917 224
-17.167936 0.0 95.23027 157
-17.18674 0.0 95.213356 97
-17.201431 0.0 95.16588 87
-17.214787 0.0 95.10858 97
-17.231045 0.0 95.07299 112
-17.248487 0.0 95.04628 120
-17.266985 0.0 95.02744 114
-17.285477 0.0 95.00861 116
-17.301567 0.0 94.9721 109
-17.317247 0.0 94.932655 110
-17.330654 0.0 94.87655 122
-17.346312 0.0 94.837166 153
-17.363161 0.0 94.806625 217
-17.3808 0.0 94.78198 299
-17.39857 0.0 94.75832 330
-17.415659 0.0 94.72978 347
-17.432743 0.0 94.701256 353
-17.449549 0.0 94.670784 344
-17.46648 0.0 94.641304 345
-17.484344 0.0 94.618675 373
-17.502066 0.0 94.59508 336
-17.518032 0.0 94.5588 312
-17.533318 0.0 94.517654 341
-17.548996 0.0 94.47947 340
-17.56507 0.0 94.44422 343
-17.582615 0.0 94.419716 352
-17.6015 0.0 94.40497 328
-17.618896 0.0 94.3795 285
-17.636015 0.0 94.352104 247
-17.654207 0.0 94.3325 208
-17.671446 0.0 94.30609 161
-17.687458 0.0 94.27094 157
-17.702648 0.0 94.22999 186
-17.71905 0.0 94.19779 243
-17.736118 0.0 94.17047 308
-17.753181 0.0 94.14316 363
-17.770779 0.0 94.11974 385
-17.787825 0.0 94.09245 378
-17.804863 0.0 94.06517 365
-17.822304 0.0 94.04082 355
-17.838919 0.0 94.01065 350
-17.854843 0.0 93.97567 348
-17.871033 0.0 93.94264 336
-17.887213 0.0 93.90963 330
-17.903383 0.0 93.87663 330
-17.91982 0.0 93.84559 333
-17.936794 0.0 93.81841 344
-17.954172 0.0 93.79415 347
-17.971542 0.0 93.7699 365
-17.988085 0.0 93.73987 354
-18.00448 0.0 93.708885 363
-18.020596 0.0 93.675995 363
-18.037111 0.0 93.64601 364
-18.054033 0.0 93.61893 386
-18.070808 0.0 93.5909 382
-18.08744 0.0 93.56191 363
-18.102825 0.0 93.5243 380
-18.11944 0.0 93.495346 398
-18.13577 0.0 93.46449 375
-18.152233 0.0 93.43461 360
-18.1691 0.0 93.40762 349
-18.185959 0.0 93.380646 311
-18.200464 0.0 93.337395 289
-18.215097 0.0 93.29513 283
-18.229029 0.0 93.248116 293
-18.245163 0.0 93.21643 332
-18.262257 0.0 93.191444 346
-18.280588 0.0 93.175064 316
-18.299332 0.0 93.16156 319
-18.317516 0.0 93.14423 294
-18.33514 0.0 93.1231 302
-18.351368 0.0 93.09243 262
-18.366337 0.0 93.0532 254
-18.382132 0.0 93.01971 289
-18.399168 0.0 92.994804 319
-18.415363 0.0 92.964195 326
-18.430714 0.0 92.9279 333
-18.446613 0.0 92.89543 336
-18.46348 0.0 92.86963 344
-18.481037 0.0 92.84859 378
-18.49803 0.0 92.82375 381
-18.515434 0.0 92.80178 331
-18.531992 0.0 92.77412 287
-18.548122 0.0 92.74362 273
-18.564104 0.0 92.7122 269
-18.579517 0.0 92.677 256
-18.594362 0.0 92.63803 275
-18.610739 0.0 92.6095 291
-18.627247 0.0 92.581924 301
-18.64431 0.0 92.55814 293
-18.661507 0.0 92.535324 301
-18.679823 0.0 92.520065 336
-18.697712 0.0 92.501976 333
-18.71517 0.0 92.481064 330
-18.732342 0.0 92.45827 263
-18.750917 0.0 92.444916 200
-18.768076 0.0 92.422134 161
-18.781977 0.0 92.37767 145
-18.794733 0.0 92.32571 188
-18.811441 0.0 92.30015 246
-18.828566 0.0 92.27742 251
-18.84611 0.0 92.25752 254
-18.86393 0.0 92.23951 305
-18.88061 0.0 92.21398 331
-18.896854 0.0 92.185646 339
-18.912666 0.0 92.1545 326
-18.927757 0.0 92.11868 294
-18.94227 0.0 92.07913 303
-18.957344 0.0 92.04336 336
-18.973545 0.0 92.0151 355
-18.990168 0.0 91.98967 351
-19.006926 0.0 91.96518 344
-19.024675 0.0 91.94726 348
-19.04199 0.0 91.92653 311
-19.058155 0.0 91.89832 311
-19.074312 0.0 91.87013 310
-19.09003 0.0 91.83916 306
-19.10617 0.0 91.81099 309
-19.12302 0.0 91.787506 327
-19.13929 0.0 91.7603 322
-19.15555 0.0 91.73311 319
-19.171085 0.0 91.70126 324
-19.18575 0.0 91.66384 331
-19.201122 0.0 91.6311 356
-19.21591 0.0 91.59466 354
-19.229393 0.0 91.54986 339
-19.244019 0.0 91.512535 385
-19.259789 0.0 91.48266 386
-19.275837 0.0 91.45466 367
-19.292023 0.0 91.4276 379
-19.30748 0.0 91.39591 347
-19.324083 0.0 91.37166 341
-19.339958 0.0 91.34278 336
-19.355968 0.0 91.31485 354
-19.37313 0.0 91.294334 326
-19.39014 0.0 91.272896 313
-19.40729 0.0 91.252396 347
-19.42458 0.0 91.23283 333
-19.4407 0.0 91.205864 342
-19.45667 0.0 91.17799 369
-19.472342 0.0 91.148285 383
-19.487423 0.0 91.1149 384
-19.502497 0.0 91.08153 374
-19.517855 0.0 91.05002 364
-19.533787 0.0 91.02222 361
-19.550003 0.0 90.99627 358
-19.566212 0.0 90.97033 361
-19.582415 0.0 90.94441 364
-19.598318 0.0 90.91666 363
-19.613632 0.0 90.88523 366
-19.6285 0.0 90.85107 369
-19.642632 0.0 90.81233 339
-19.656462 0.0 90.77178 360
-19.671452 0.0 90.7386 376
-19.686874 0.0 90.70819 371
-19.702436 0.0 90.67871 341
-19.717844 0.0 90.64833 322
-19.733393 0.0 90.61888 323
-19.748642 0.0 90.587616 312
-19.763884 0.0 90.556366 284
-19.778826 0.0 90.52331 261
-19.7942 0.0 90.493004 273
-19.810595 0.0 90.46912 301
-19.827572 0.0 90.44889 295
-19.844543 0.0 90.42867 288
-19.860922 0.0 90.40481 282
-19.87715 0.0 90.38004 303
-19.893223 0.0 90.35438 300
-19.908554 0.0 90.324165 300
-19.923733 0.0 90.29306 318
-19.939493 0.0 90.26561 326
-19.955395 0.0 90.23908 329
-19.971882 0.0 90.2162 365
-19.987919 0.0 90.19061 371
-20.003214 0.0 90.160484 384
-20.019684 0.0 90.13764 371
-20.035852 0.0 90.11298 355
-20.051426 0.0 90.08472 344
-20.067434 0.0 90.05918 313
-20.084179 0.0 90.038185 271
-20.101065 0.0 90.01811 233
-20.11706 0.0 89.99261 217
-20.132898 0.0 89.96621 207
-20.149475 0.0 89.94434 183
-20.166044 0.0 89.92249 182
-20.183203 0.0 89.90427 160
-20.19843 0.0 89.87429 136
-20.211126 0.0 89.82896 138
-20.225002 0.0 89.790886 171
-20.237833 0.0 89.74652 213
-20.252733 0.0 89.71482 245
-20.269413 0.0 89.693954 272
-20.285936 0.0 89.672195 280
-20.302307 0.0 89.64954 256
-20.31793 0.0 89.6224 222
-20.333546 0.0 89.59527 189
-20.347965 0.0 89.56095 176
-20.359846 0.0 89.51136 182
-20.374996 0.0 89.48158 185
-20.39342 0.0 89.47159 179
0.0 0.3 0.0 0
22.828186 0.3 100.42407 252
22.80754 0.3 100.43048 256
22.78883 0.3 100.44857 264
22.769056 0.3 100.4603 260
22.749456 0.3 100.47308 225
22.7288 0.3 100.4795 214
22.709017 0.3 100.49123 231
22.689056 0.3 100.50189 237
22.670141 0.3 100.51894 247
22.650173 0.3 100.52962 245
22.629326 0.3 100.53497 223
22.61005 0.3 100.54991 229
22.590595 0.3 100.56378 247
22.570263 0.3 100.572334 241
22.549582 0.3 100.57876 219
22.529766 0.3 100.59051 200
22.509773 0.3 100.6012 143
22.4903 0.3 100.61508 112
22.472208 0.3 100.6375 99
22.451683 0.3 100.645 89
22.43237 0.3 100.65996 84
22.410625 0.3 100.659996 89
22.389055 0.3 100.6611 105
22.368176 0.3 100.66647 125
22.348846 0.3 100.68144 126
22.328478 0.3 100.69001 111
22.310003 0.3 100.71032 109
22.29066 0.3 100.7253 108
22.271832 0.3 100.74349 118
22.251274 0.3 100.75101 116
22.231918 0.3 100.76599 107
22.212387 0.3 100.77992 131
22.19165 0.3 100.78637 167
22.171253 0.3 100.79496 175
22.149996 0.3 100.79821 166
22.130278 0.3 100.81107 174
22.111923 0.3 100.8325 219
22.091684 0.3 100.84216 257
22.072123 0.3 100.85611 250
22.052729 0.3 100.871124 246
22.032307 0.3 100.87973 215
22.013243 0.3 100.8969 195
21.993155 0.3 100.90764 183
21.97306 0.3 100.91839 151
21.952286 0.3 100.92486 105
21.933712 0.3 100.94525 96
21.912422 0.3 100.94851 114
21.891298 0.3 100.95284 143
21.872204 0.3 100.970024 172
21.852596 0.3 100.98401 204
21.83332 0.3 101.00013 222
21.81286 0.3 101.00875 227
21.793745 0.3 101.025955 193
21.774961 0.3 101.04531 177
21.754488 0.3 101.05395 201
21.734516 0.3 101.065796 251
21.713867 0.3 101.07336 261
21.693384 0.3 101.08199 264
21.673233 0.3 101.09277 268
21.652409 0.3 101.099266 263
21.632418 0.3 101.11112 268
21.61209 0.3 101.12084 259
21.592257 0.3 101.13378 235
21.572588 0.3 101.1478 247
21.552414 0.3 101.15859 220
21.532736 0.3 101.172615 217
21.512886 0.3 101.18557 222
21.493198 0.3 101.1996 211
21.473671 0.3 101.214714 196
21.45464 0.3 101.233055 170
21.435434 0.3 101.25032 151
21.415062 0.3 101.26006 188
21.394356 0.3 101.26765 235
21.373152 0.3 101.272 266
21.352936 0.3 101.28283 273
21.333046 0.3 101.2958 240
21.313482 0.3 101.310936 258
21.292923 0.3 101.31961 268
21.272032 0.3 101.326126 276
21.251303 0.3 101.33372 255
21.230406 0.3 101.34024 231
21.210985 0.3 101.35646 234
21.19205 0.3 101.37593 245
21.171963 0.3 101.38785 271
21.152033 0.3 101.40085 283
21.13128 0.3 101.40845 274
21.110853 0.3 101.41821 252
21.090422 0.3 101.42798 240
21.071127 0.3 101.44531 238
21.050688 0.3 101.45508 233
21.030243 0.3 101.46485 233
21.01077 0.3 101.48111 237
20.989992 0.3 101.48872 243
20.969374 0.3 101.49742 223
20.950537 0.3 101.51801 179
20.93056 0.3 101.531044 153
20.91009 0.3 101.540825 141
20.888645 0.3 101.54412 109
20.868652 0.3 101.55715 86
20.847689 0.3 101.5637 78
20.829302 0.3 101.587555 78
20.808006 0.3 101.591934 74
20.788479 0.3 101.60822 72
20.77088 0.3 101.63752 68
20.749891 0.3 101.644066 75
20.72858 0.3 101.64845 90
20.707108 0.3 101.65175 109
20.687235 0.3 101.66589 104
20.667837 0.3 101.68328 102
20.649395 0.3 101.707184 96
20.628706 0.3 101.71591 88
20.608812 0.3 101.730064 86
20.587795 0.3 101.736626 80
20.569008 0.3 101.75838 76
20.547506 0.3 101.76168 79
20.526001 0.3 101.764984 79
20.504654 0.3 101.76938 77
20.48521 0.3 101.7868 87
20.464014 0.3 101.792274 127
20.443132 0.3 101.79993 172
20.421932 0.3 101.805405 208
20.402153 0.3 101.820656 209
20.383 0.3 101.84026 237
20.363209 0.3 101.85553 256
20.342783 0.3 101.86645 289
20.321878 0.3 101.87411 279
20.301758 0.3 101.8872 253
20.281946 0.3 101.90247 269
20.261503 0.3 101.9134 273
20.24121 0.3 101.925415 257
20.2206 0.3 101.93526 266
20.199516 0.3 101.94183 258
20.178587 0.3 101.9495 245
20.158123 0.3 101.960434 209
20.138435 0.3 101.976814 187
20.118118 0.3 101.98884 151
20.098267 0.3 102.004135 125
20.07794 0.3 102.01617 107
20.05761 0.3 102.0282 113
20.036184 0.3 102.0326 100
20.016312 0.3 102.047905 87
19.996435 0.3 102.06322 78
19.976242 0.3 102.07635 82
19.955425 0.3 102.08512 90
19.935997 0.3 102.10371 106
19.916409 0.3 102.121216 125
19.89635 0.3 102.135445 148
19.875824 0.3 102.14641 152
19.854523 0.3 102.15192 179
19.833065 0.3 102.15633 224
19.811451 0.3 102.159645 260
19.791065 0.3 102.1717 251
19.770828 0.3 102.18485 268
19.74982 0.3 102.19254 270
19.729574 0.3 102.205696 237
19.709785 0.3 102.22214 239
19.689224 0.3 102.23311 257
19.668507 0.3 102.24299 258
19.647478 0.3 102.25069 259
19.625992 0.3 102.255104 232
19.605263 0.3 102.26499 225
19.585293 0.3 102.28035 219
19.564861 0.3 102.29243 214
19.543362 0.3 102.296844 163
19.521708 0.3 102.30017 110
19.501871 0.3 102.31663 87
19.481878 0.3 102.33199 82
19.462486 0.3 102.351746 89
19.442179 0.3 102.36494 113
19.42051 0.3 102.36826 119
19.400194 0.3 102.38145 108
19.379272 0.3 102.39026 94
19.360306 0.3 102.413315 103
19.339075 0.3 102.41994 121
19.317389 0.3 102.42326 123
19.296604 0.3 102.433174 112
19.275364 0.3 102.4398 107
19.25697 0.3 102.467255 107
19.236319 0.3 102.47827 126
19.216713 0.3 102.49696 158
19.195906 0.3 102.50689 184
19.175543 0.3 102.5201 195
19.155025 0.3 102.53222 236
19.134207 0.3 102.542145 271
19.114128 0.3 102.55756 276
19.093597 0.3 102.569695 297
19.07232 0.3 102.576324 293
19.051338 0.3 102.58516 257
19.0305 0.3 102.59509 236
19.010548 0.3 102.61162 250
18.990591 0.3 102.62816 244
18.97048 0.3 102.64359 255
18.949476 0.3 102.652435 235
18.928915 0.3 102.66458 215
18.908346 0.3 102.67673 254
18.88704 0.3 102.68337 276
18.86573 0.3 102.69002 262
18.845005 0.3 102.701065 222
18.82501 0.3 102.71762 234
18.804276 0.3 102.728676 231
18.783978 0.3 102.743034 196
18.762796 0.3 102.75079 169
18.741175 0.3 102.75524 161
18.719843 0.3 102.761894 151
18.700989 0.3 102.787285 169
18.680086 0.3 102.79725 211
18.658888 0.3 102.80501 203
18.638706 0.3 102.82049 181
18.620117 0.3 102.84811 165
18.598907 0.3 102.85587 167
18.57697 0.3 102.85812 157
18.555319 0.3 102.86258 136
18.536417 0.3 102.88801 125
18.51693 0.3 102.909035 149
18.495413 0.3 102.9146 172
18.473173 0.3 102.91464 149
18.451221 0.3 102.91689 107
18.431858 0.3 102.939026 92
18.410908 0.3 102.94901 97
18.391102 0.3 102.96785 103
18.370573 0.3 102.981155 118
18.349897 0.3 102.99336 112
18.32893 0.3 103.00336 106
18.308674 0.3 103.01889 108
18.286842 0.3 103.02225 108
18.266008 0.3 103.033356 102
18.245598 0.3 103.04779 93
18.22447 0.3 103.05669 75
18.204336 0.3 103.07333 68
18.184053 0.3 103.08888 63
18.163767 0.3 103.10443 66
18.143475 0.3 103.11998 71
18.12162 0.3 103.12335 74
18.099903 0.3 103.12782 69
18.081297 0.3 103.156685 65
18.061129 0.3 103.17336 65
18.041096 0.3 103.19115 67
18.021198 0.3 103.210045 74
17.999603 0.3 103.21564 81
17.977726 0.3 103.21901 81
17.95697 0.3 103.23126 85
17.93537 0.3 103.236855 102
17.914467 0.3 103.248 119
17.892578 0.3 103.25137 143
17.870409 0.3 103.252525 159
17.84824 0.3 103.253685 164
17.826487 0.3 103.25816 151
17.80585 0.3 103.27153 135
17.785345 0.3 103.28602 122
17.763723 0.3 103.29161 125
17.742935 0.3 103.30388 115
17.723112 0.3 103.32392 94
17.706615 0.3 103.37066 92
17.686502 0.3 103.3885 111
17.664165 0.3 103.388535 127
17.641966 0.3 103.389694 143
17.620872 0.3 103.39975 170
17.601154 0.3 103.42094 197
17.579638 0.3 103.42766 203
17.557981 0.3 103.433266 182
17.538523 0.3 103.45669 164
17.517958 0.3 103.47121 186
17.496977 0.3 103.48239 226
17.475306 0.3 103.488 278
17.453905 0.3 103.49584 324
17.433187 0.3 103.509254 303
17.41219 0.3 103.52045 291
17.390917 0.3 103.5294 261
17.369503 0.3 103.537254 188
17.350403 0.3 103.56406 158
17.330751 0.3 103.5864 172
17.310411 0.3 103.60318 208
17.289251 0.3 103.613266 216
17.268496 0.3 103.62671 190
17.24787 0.3 103.64126 183
17.226833 0.3 103.652466 183
17.206469 0.3 103.669266 183
17.184883 0.3 103.676 172
17.163431 0.3 103.68387 155
17.14359 0.3 103.70514 134
17.121994 0.3 103.71188 115
17.100664 0.3 103.72087 110
17.081211 0.3 103.74551 118
17.060007 0.3 103.755615 129
17.038261 0.3 103.761246 138
17.017452 0.3 103.77471 139
16.996101 0.3 103.7837 136
16.974081 0.3 103.787094 144
16.95206 0.3 103.7905 166
16.931234 0.3 103.80396 175
16.910404 0.3 103.81744 186
16.888771 0.3 103.82419 184
16.867933 0.3 103.83766 184
16.847221 0.3 103.852264 222
16.825447 0.3 103.8579 269
16.803669 0.3 103.86354 324
16.782284 0.3 103.87254 335
16.760765 0.3 103.880424 318
16.740295 0.3 103.89727 291
16.719822 0.3 103.91412 233
16.698685 0.3 103.92537 195
16.677149 0.3 103.93326 151
16.657446 0.3 103.95685 126
16.636164 0.3 103.96698 114
16.614353 0.3 103.972626 111
16.594893 0.3 103.998474 129
16.574902 0.3 104.019844 159
16.554644 0.3 104.03897 197
16.533857 0.3 104.053604 182
16.512287 0.3 104.06151 158
16.491232 0.3 104.0739 153
16.469265 0.3 104.07843 153
16.447296 0.3 104.08296 135
16.427652 0.3 104.10773 112
16.407354 0.3 104.12688 115
16.384985 0.3 104.12804 123
16.362616 0.3 104.129196 123
16.341532 0.3 104.1416 115
16.320057 0.3 104.15064 124
16.299479 0.3 104.16755 146
16.278507 0.3 104.18109 151
16.256765 0.3 104.187874 151
16.235657 0.3 104.200294 139
16.215439 0.3 104.2206 152
16.194832 0.3 104.23752 155
16.1732 0.3 104.24544 161
16.1508 0.3 104.246605 138
16.128782 0.3 104.251144 112
16.108028 0.3 104.26695 99
16.086384 0.3 104.27487 88
16.066633 0.3 104.299706 92
16.044725 0.3 104.305374 120
16.023699 0.3 104.31894 148
16.002792 0.3 104.33363 185
15.982889 0.3 104.35736 235
15.961845 0.3 104.37094 273
15.940797 0.3 104.384514 242
15.919869 0.3 104.39922 198
15.89831 0.3 104.408295 150
15.8778715 0.3 104.42753 127
15.856678 0.3 104.43999 118
15.836228 0.3 104.45923 127
15.8147745 0.3 104.46944 150
15.79282 0.3 104.47512 189
15.772353 0.3 104.49437 188
15.75188 0.3 104.51363 207
15.730409 0.3 104.52384 223
15.707943 0.3 104.52501 226
15.684982 0.3 104.52165 209
15.662886 0.3 104.52621 153
15.641649 0.3 104.53869 118
15.621269 0.3 104.55909 110
15.600759 0.3 104.57837 103
15.580119 0.3 104.59652 99
15.558493 0.3 104.60561 88
15.538454 0.3 104.62944 96
15.515474 0.3 104.626076 119
15.494203 0.3 104.63857 147
15.473414 0.3 104.65561 133
15.453715 0.3 104.68285 115
15.43352 0.3 104.70557 113
15.412954 0.3 104.72489 105
15.390927 0.3 104.7306 125
15.368534 0.3 104.7329 172
15.347106 0.3 104.744286 197
15.325554 0.3 104.75454 230
15.304117 0.3 104.76593 274
15.282557 0.3 104.776184 249
15.260752 0.3 104.78417 229
15.239423 0.3 104.7967 250
15.21785 0.3 104.80696 269
15.196992 0.3 104.82404 258
15.175888 0.3 104.83885 265
15.154302 0.3 104.84912 242
15.132473 0.3 104.85712 247
15.111355 0.3 104.87193 274
15.0895195 0.3 104.87994 282
15.067799 0.3 104.88907 261
15.046074 0.3 104.89821 240
15.024938 0.3 104.91304 241
15.00356 0.3 104.9256 247
14.981587 0.3 104.932465 283
14.959848 0.3 104.94161 301
14.93881 0.3 104.95759 249
14.918591 0.3 104.981544 246
14.897776 0.3 104.99982 245
14.876251 0.3 105.01125 265
14.854021 0.3 105.01585 269
14.832139 0.3 105.023865 274
14.810254 0.3 105.03188 253
14.789064 0.3 105.04675 198
14.767288 0.3 105.055916 143
14.747134 0.3 105.08105 111
14.725348 0.3 105.09022 99
14.7043705 0.3 105.107376 106
14.68327 0.3 105.123405 105
14.661356 0.3 105.13143 102
14.640477 0.3 105.14975 108
14.619362 0.3 105.16579 107
14.597665 0.3 105.17611 109
14.575621 0.3 105.18301 106
14.553688 0.3 105.19105 98
14.533356 0.3 105.215096 89
14.512558 0.3 105.23458 93
14.490612 0.3 105.24262 107
14.468092 0.3 105.24496 101
14.44671 0.3 105.25873 86
14.426915 0.3 105.28852 82
14.4050665 0.3 105.29772 89
14.382535 0.3 105.30006 92
14.362152 0.3 105.32415 88
14.340745 0.3 105.33794 94
14.319558 0.3 105.35402 106
14.297577 0.3 105.36208 120
14.275255 0.3 105.36671 115
14.253157 0.3 105.373634 110
14.231728 0.3 105.38743 111
14.209622 0.3 105.394356 128
14.189193 0.3 105.41848 161
14.167526 0.3 105.42999 197
14.145743 0.3 105.44036 202
14.124181 0.3 105.45303 211
14.102724 0.3 105.46685 211
14.081486 0.3 105.48296 202
14.060131 0.3 105.49793 213
14.037995 0.3 105.50487 202
14.015967 0.3 105.512955 186
13.994158 0.3 105.52334 189
13.972014 0.3 105.53027 164
13.950088 0.3 105.53951 144
13.928377 0.3 105.55105 130
13.906005 0.3 105.555695 105
13.885603 0.3 105.58103 94
13.8637705 0.3 105.59142 93
13.843355 0.3 105.61677 98
13.821186 0.3 105.62372 98
13.798904 0.3 105.62952 99
13.77945 0.3 105.66524 118
13.758465 0.3 105.68486 140
13.735953 0.3 105.68836 149
13.71344 0.3 105.69186 147
13.691682 0.3 105.70342 172
13.670029 0.3 105.71614 194
13.64794 0.3 105.72425 217
13.62617 0.3 105.73582 194
13.604612 0.3 105.749695 171
13.582942 0.3 105.76242 166
13.561912 0.3 105.78206 181
13.540232 0.3 105.79479 186
13.519189 0.3 105.814445 173
13.498888 0.3 105.84218 160
13.478792 0.3 105.87224 156
13.458367 0.3 105.89884 151
13.4362335 0.3 105.90697 142
13.415477 0.3 105.930115 141
13.394077 0.3 105.94634 155
13.3723545 0.3 105.9591 171
13.350311 0.3 105.96839 145
13.327947 0.3 105.97422 116
13.306635 0.3 105.99161 99
13.28458 0.3 106.0009 98
13.262837 0.3 106.013664 112
13.240566 0.3 106.02065 123
13.218711 0.3 106.032265 117
13.196225 0.3 106.03694 92
13.175928 0.3 106.06591 80
13.1538515 0.3 106.07522 89
13.132292 0.3 106.09031 103
13.110831 0.3 106.10657 134
13.089054 0.3 106.11935 154
13.067065 0.3 106.12982 163
13.04621 0.3 106.15303 152
13.024109 0.3 106.162346 141
13.001696 0.3 106.16818 139
12.9792795 0.3 106.17403 147
12.957787 0.3 106.19029 172
12.93557 0.3 106.198456 213
12.913349 0.3 106.20661 232
12.89123 0.3 106.21593 184
12.869616 0.3 106.23105 140
12.84759 0.3 106.24153 120
12.825968 0.3 106.25665 123
12.805052 0.3 106.27991 114
12.785245 0.3 106.31594 132
12.764414 0.3 106.34037 154
12.742059 0.3 106.34738 160
12.719902 0.3 106.35672 167
12.69865 0.3 106.37651 166
12.676184 0.3 106.38236 152
12.6540165 0.3 106.3917 149
12.632348 0.3 106.40685 156
12.610674 0.3 106.422005 208
12.588096 0.3 106.4267 270
12.565215 0.3 106.427895 279
12.542832 0.3 106.43491 210
12.520448 0.3 106.44193 163
12.498655 0.3 106.455925 153
12.4770565 0.3 106.47225 158
12.455552 0.3 106.489746 175
12.432955 0.3 106.49444 191
12.41075 0.3 106.50379 194
12.388838 0.3 106.51663 187
12.36702 0.3 106.53064 226
12.345295 0.3 106.54582 239
12.322879 0.3 106.55284 249
12.300167 0.3 106.55637 259
12.2782345 0.3 106.56922 271
12.256493 0.3 106.58441 267
12.233773 0.3 106.58794 292
12.211344 0.3 106.59497 306
12.1895895 0.3 106.61015 315
12.167251 0.3 106.618355 264
12.144908 0.3 106.62655 187
12.123238 0.3 106.64291 148
12.102043 0.3 106.66511 118
12.079689 0.3 106.67331 105
12.057427 0.3 106.68268 125
12.034588 0.3 106.68504 157
12.011844 0.3 106.688576 163
11.989192 0.3 106.693275 151
11.967015 0.3 106.70382 147
11.94436 0.3 106.70852 130
11.922366 0.3 106.72139 110
11.9005575 0.3 106.7366 118
11.877988 0.3 106.74248 141
11.855511 0.3 106.74952 150
11.8314295 0.3 106.7367 133
11.808763 0.3 106.7414 116
11.785905 0.3 106.74377 109
11.763702 0.3 106.75431 107
11.741028 0.3 106.75902 113
11.718352 0.3 106.76372 116
11.695582 0.3 106.76726 117
11.67346 0.3 106.77898 129
11.651149 0.3 106.78835 129
11.628186 0.3 106.78955 135
11.605593 0.3 106.795425 144
11.58272 0.3 106.7978 149
11.559387 0.3 106.79432 151
11.535871 0.3 106.788506 145
11.512998 0.3 106.79087 133
11.4903965 0.3 106.796745 123
11.467521 0.3 106.79912 114
11.444825 0.3 106.80382 109
11.422582 0.3 106.81438 115
11.399519 0.3 106.8144 106
11.376365 0.3 106.81326 91
11.353482 0.3 106.81563 86
11.330508 0.3 106.81683 98
11.306455 0.3 106.80399 116
11.283122 0.3 106.800514 148
11.25997 0.3 106.79938 169
11.236996 0.3 106.800575 168
11.214378 0.3 106.80645 163
11.191491 0.3 106.808815 182
11.16807 0.3 106.80417 233
11.144473 0.3 106.79718 262
11.120701 0.3 106.78785 221
11.098079 0.3 106.793724 190
11.075365 0.3 106.79843 167
11.05265 0.3 106.80314 164
11.030108 0.3 106.81018 171
11.008264 0.3 106.826584 182
10.985628 0.3 106.832466 198
10.963164 0.3 106.84068 218
10.941046 0.3 106.853584 208
10.918228 0.3 106.85712 202
10.895323 0.3 106.85949 220
10.872848 0.3 106.86771 256
10.849938 0.3 106.87008 258
10.826771 0.3 106.868935 247
10.803774 0.3 106.87013 241
10.780605 0.3 106.86899 267
10.757608 0.3 106.870186 314
10.7346945 0.3 106.87255 333
10.711696 0.3 106.87375 341
10.68861 0.3 106.87378 353
10.665778 0.3 106.87732 343
10.643114 0.3 106.8832 321
10.620194 0.3 106.88557 329
10.597527 0.3 106.89145 327
10.575024 0.3 106.89967 316
10.552854 0.3 106.91259 294
10.530176 0.3 106.91847 232
10.507831 0.3 106.92905 185
10.485898 0.3 106.94548 201
10.464042 0.3 106.9631 235
10.441269 0.3 106.96781 277
10.417998 0.3 106.96549 280
10.39514 0.3 106.96903 260
10.37228 0.3 106.97258 230
10.349665 0.3 106.979645 229
10.326637 0.3 106.98084 244
10.303936 0.3 106.98673 265
10.28164 0.3 106.99849 269
10.258607 0.3 106.99969 269
10.235493 0.3 106.99971 254
10.21254 0.3 107.00208 252
10.189748 0.3 107.006805 264
10.167033 0.3 107.012695 261
10.144639 0.3 107.023285 255
10.121759 0.3 107.02683 243
10.098397 0.3 107.02333 231
10.075116 0.3 107.02101 227
10.052234 0.3 107.02455 235
10.029588 0.3 107.031624 252
10.007019 0.3 107.03986 271
9.983972 0.3 107.04106 305
9.961082 0.3 107.04461 316
9.93827 0.3 107.049324 317
9.915533 0.3 107.05522 310
9.893344 0.3 107.06934 310
9.870758 0.3 107.07759 318
9.847935 0.3 107.08231 300
9.824877 0.3 107.08351 262
9.802594 0.3 107.09646 228
9.780694 0.3 107.11529 178
9.758092 0.3 107.12354 164
9.735796 0.3 107.1365 176
9.712879 0.3 107.140045 180
9.689808 0.3 107.14124 170
9.666736 0.3 107.14244 151
9.643815 0.3 107.14599 136
9.621807 0.3 107.16366 138
9.598804 0.3 107.16603 162
9.575271 0.3 107.16017 184
9.552268 0.3 107.162544 205
9.529641 0.3 107.1708 226
9.506559 0.3 107.172 237
9.482951 0.3 107.164955 243
9.459794 0.3 107.16497 250
9.43716 0.3 107.173225 262
9.414521 0.3 107.18148 263
9.391435 0.3 107.18268 250
9.368717 0.3 107.18976 230
9.345923 0.3 107.195656 243
9.322833 0.3 107.19685 246
9.299667 0.3 107.19687 232
9.276574 0.3 107.19806 221
9.253335 0.3 107.1969 207
9.230095 0.3 107.19573 187
9.207364 0.3 107.20281 191
9.184631 0.3 107.20989 195
9.161823 0.3 107.2158 205
9.13923 0.3 107.225235 217
9.1161995 0.3 107.2276 254
9.093097 0.3 107.22879 279
9.070065 0.3 107.231155 274
9.0473175 0.3 107.238235 269
9.024568 0.3 107.245316 287
9.001886 0.3 107.25358 317
8.97906 0.3 107.25948 296
8.956232 0.3 107.26538 297
8.933472 0.3 107.27247 277
8.910567 0.3 107.27719 251
8.888083 0.3 107.28899 263
8.865806 0.3 107.30432 253
8.843173 0.3 107.31377 259
8.820745 0.3 107.32675 274
8.798244 0.3 107.338554 250
8.775462 0.3 107.34564 241
8.752608 0.3 107.35155 236
8.72982 0.3 107.358635 253
8.706892 0.3 107.363365 256
8.6838255 0.3 107.36573 251
8.660551 0.3 107.36455 253
8.63755 0.3 107.368095 253
8.614889 0.3 107.37754 231
8.591816 0.3 107.379906 256
8.568743 0.3 107.38227 317
8.546073 0.3 107.391716 357
8.5236025 0.3 107.40471 394
8.500724 0.3 107.410614 370
8.477709 0.3 107.41416 340
8.45476 0.3 107.418884 289
8.431808 0.3 107.423615 264
8.408789 0.3 107.427155 270
8.385635 0.3 107.42834 262
8.362613 0.3 107.43188 260
8.339919 0.3 107.44133 287
8.317287 0.3 107.451965 266
8.294324 0.3 107.45669 273
8.271294 0.3 107.46023 298
8.248327 0.3 107.46496 295
8.225489 0.3 107.472046 282
8.202843 0.3 107.48268 311
8.180063 0.3 107.49095 305
8.157022 0.3 107.49449 293
8.134238 0.3 107.50277 276
8.111579 0.3 107.513405 317
8.088852 0.3 107.522865 343
8.06625 0.3 107.53469 353
8.043835 0.3 107.550064 355
8.020906 0.3 107.55597 350
7.9979124 0.3 107.5607 352
7.9751697 0.3 107.57016 315
7.95236 0.3 107.57844 299
7.9294853 0.3 107.58553 298
7.9071083 0.3 107.602104 295
7.8843517 0.3 107.611565 284
7.861281 0.3 107.615105 269
7.8383327 0.3 107.62102 250
7.8155675 0.3 107.630486 252
7.792553 0.3 107.635216 255
7.769659 0.3 107.64231 247
7.746579 0.3 107.64585 237
7.7235584 0.3 107.65058 212
7.700841 0.3 107.66123 204
7.6778765 0.3 107.667145 204
7.6548495 0.3 107.671875 223
7.6320624 0.3 107.68134 241
7.6087904 0.3 107.68133 286
7.5853977 0.3 107.67895 314
7.5621247 0.3 107.67893 285
7.5390906 0.3 107.683655 265
7.516114 0.3 107.68957 323
7.4930167 0.3 107.693115 393
7.4697404 0.3 107.6931 414
7.446287 0.3 107.68952 409
7.4231286 0.3 107.69188 402
7.400144 0.3 107.69779 389
7.3769245 0.3 107.69896 373
7.353646 0.3 107.698944 361
7.330947 0.3 107.710785 362
7.3078394 0.3 107.714325 376
7.284499 0.3 107.71312 391
7.2612743 0.3 107.71429 399
7.2381635 0.3 107.71783 415
7.2151084 0.3 107.72255 417
7.1918807 0.3 107.72372 377
7.1685953 0.3 107.723694 295
7.145423 0.3 107.72605 203
7.122644 0.3 107.7367 145
7.0996933 0.3 107.743805 120
7.0765157 0.3 107.746155 118
7.053281 0.3 107.74732 114
7.0304914 0.3 107.75798 106
7.0075865 0.3 107.766266 102
6.985122 0.3 107.78405 105
6.962321 0.3 107.794716 116
6.9391313 0.3 107.797066 122
6.916488 0.3 107.811295 120
6.8937316 0.3 107.82315 123
6.8710794 0.3 107.83738 138
6.8478265 0.3 107.83855 174
6.824518 0.3 107.838524 214
6.801264 0.3 107.83968 233
6.7782235 0.3 107.845604 231
6.75593 0.3 107.86816 228
6.7333093 0.3 107.88359 223
6.711056 0.3 107.90734 223
6.688424 0.3 107.92278 255
6.6659455 0.3 107.94179 315
6.642882 0.3 107.947716 338
6.6197114 0.3 107.951256 307
6.596539 0.3 107.9548 266
6.5735216 0.3 107.96192 243
6.550969 0.3 107.97975 255
6.527893 0.3 107.98567 277
6.5048666 0.3 107.99279 313
6.4818892 0.3 108.00111 369
6.4586525 0.3 108.00346 398
6.4355173 0.3 108.0082 376
6.412583 0.3 108.0177 385
6.3897467 0.3 108.02959 363
6.3666544 0.3 108.035515 337
6.3435097 0.3 108.04026 293
6.3208637 0.3 108.056915 259
6.2979627 0.3 108.06761 262
6.2749586 0.3 108.07593 294
6.251754 0.3 108.07948 330
6.2285967 0.3 108.08422 376
6.2053394 0.3 108.08658 386
6.1821795 0.3 108.091324 350
6.159017 0.3 108.09607 330
6.135756 0.3 108.09843 323
6.1124454 0.3 108.099594 317
6.0892305 0.3 108.10314 308
6.065966 0.3 108.1055 296
6.042749 0.3 108.109055 300
6.019673 0.3 108.11618 324
5.9967837 0.3 108.12808 358
5.973702 0.3 108.135216 382
5.950805 0.3 108.14712 376
5.9277177 0.3 108.15425 349
5.904627 0.3 108.161385 337
5.88172 0.3 108.173294 324
5.858531 0.3 108.17804 370
5.8350635 0.3 108.17562 399
5.811642 0.3 108.1744 381
5.788587 0.3 108.18273 335
5.7655287 0.3 108.19106 307
5.742241 0.3 108.19342 304
5.718907 0.3 108.19459 299
5.696067 0.3 108.208885 321
5.6731324 0.3 108.2208 346
5.65006 0.3 108.22913 326
5.6269403 0.3 108.236275 328
5.6035967 0.3 108.23744 350
5.580473 0.3 108.24458 360
5.5573025 0.3 108.25053 392
5.533999 0.3 108.25289 404
5.510694 0.3 108.25525 353
5.487345 0.3 108.25642 258
5.46434 0.3 108.26714 181
5.4419746 0.3 108.29581 136
5.419387 0.3 108.318504 149
5.3963656 0.3 108.32924 152
5.373045 0.3 108.331604 147
5.3499336 0.3 108.33995 142
5.326651 0.3 108.34351 131
5.3032007 0.3 108.342285 125
5.2797503 0.3 108.34106 126
5.256424 0.3 108.34342 120
5.232932 0.3 108.340996 114
5.2094812 0.3 108.33977 115
5.186235 0.3 108.34452 116
5.1631894 0.3 108.35526 130
5.1403017 0.3 108.3708 158
5.1173687 0.3 108.38513 227
5.094391 0.3 108.39827 285
5.07117 0.3 108.40423 351
5.0478272 0.3 108.40659 402
5.0244045 0.3 108.40656 413
5.000982 0.3 108.406525 370
4.977481 0.3 108.4041 287
4.954291 0.3 108.411255 202
4.931679 0.3 108.436386 171
4.90875 0.3 108.45193 191
4.885625 0.3 108.46149 278
4.8625345 0.3 108.472244 353
4.839251 0.3 108.477005 372
4.815965 0.3 108.481766 327
4.7925653 0.3 108.48293 234
4.7693143 0.3 108.4889 158
4.746469 0.3 108.50806 135
4.723839 0.3 108.53442 137
4.7006125 0.3 108.54158 152
4.677237 0.3 108.543945 147
4.6538606 0.3 108.54632 126
4.6303744 0.3 108.54508 105
4.6072483 0.3 108.55585 97
4.584047 0.3 108.56422 108
4.5609136 0.3 108.57499 117
4.537387 0.3 108.57255 118
4.51358 0.3 108.56051 106
4.490476 0.3 108.57248 108
4.4674726 0.3 108.58805 117
4.4449134 0.3 108.61925 139
4.4220343 0.3 108.63964 191
4.3987722 0.3 108.64681 262
4.3754053 0.3 108.65038 282
4.352375 0.3 108.66598 262
4.3293395 0.3 108.68157 242
4.3064995 0.3 108.704384 214
4.2837186 0.3 108.729614 194
4.261029 0.3 108.75846 177
4.238329 0.3 108.78732 192
4.2152276 0.3 108.80174 231
4.191796 0.3 108.80411 261
4.1681376 0.3 108.79805 248
4.1445127 0.3 108.79319 229
4.1211123 0.3 108.79676 228
4.097965 0.3 108.809975 234
4.07497 0.3 108.829216 193
4.052251 0.3 108.85931 163
4.0294595 0.3 108.887 158
4.006814 0.3 108.92074 153
3.983942 0.3 108.94604 141
3.9609394 0.3 108.966515 153
3.9375043 0.3 108.9701 163
3.913917 0.3 108.96764 165
3.8904204 0.3 108.9688 166
3.867221 0.3 108.98205 170
3.84381 0.3 108.98683 197
3.8202796 0.3 108.986786 234
3.7966905 0.3 108.98433 252
3.77316 0.3 108.98428 242
3.7497447 0.3 108.989075 245
3.7264705 0.3 108.99989 278
3.7029939 0.3 109.002266 286
3.6794314 0.3 109.001015 277
3.6558414 0.3 108.99855 290
3.6323352 0.3 108.99971 327
3.608939 0.3 109.00571 326
3.5857053 0.3 109.01895 281
3.5624127 0.3 109.02978 261
3.5393057 0.3 109.049065 270
3.5159507 0.3 109.05748 310
3.4924061 0.3 109.057434 329
3.4688084 0.3 109.05496 323
3.4452903 0.3 109.05612 320
3.4217975 0.3 109.058495 309
3.398304 0.3 109.06086 291
3.3749635 0.3 109.07048 297
3.3517725 0.3 109.08736 306
3.328374 0.3 109.09457 298
3.3049223 0.3 109.09935 287
3.2814693 0.3 109.10414 266
3.257965 0.3 109.10651 244
3.2344353 0.3 109.107666 240
3.2110026 0.3 109.11366 257
3.1874712 0.3 109.114815 282
3.1639392 0.3 109.115974 333
3.1404068 0.3 109.11713 366
3.116874 0.3 109.118286 321
3.0935037 0.3 109.12791 306
3.0701072 0.3 109.13632 297
3.0466392 0.3 109.14111 326
3.0231466 0.3 109.144684 349
2.9995852 0.3 109.14463 367
2.9760015 0.3 109.143364 374
2.9525287 0.3 109.14815 358
2.9290543 0.3 109.15293 342
2.905687 0.3 109.163765 333
2.8821652 0.3 109.16613 338
2.8586214 0.3 109.16728 343
2.8351617 0.3 109.17328 319
2.8117208 0.3 109.18048 314
2.7881947 0.3 109.182846 358
2.7646468 0.3 109.184 384
2.74116 0.3 109.18878 373
2.7176917 0.3 109.19478 387
2.6941612 0.3 109.197136 391
2.6705904 0.3 109.197075 404
2.647059 0.3 109.19944 389
2.6235073 0.3 109.200584 391
2.5999548 0.3 109.20174 390
2.5764785 0.3 109.20773 383
2.553 0.3 109.21372 384
2.5294638 0.3 109.21608 398
2.505945 0.3 109.21965 395
2.4824069 0.3 109.222015 374
2.4589403 0.3 109.22922 382
2.4354892 0.3 109.23763 358
2.411947 0.3 109.23999 373
2.3883169 0.3 109.23629 385
2.364705 0.3 109.2338 387
2.3411453 0.3 109.23495 346
2.3175852 0.3 109.23609 312
2.2940748 0.3 109.240875 286
2.270563 0.3 109.24565 314
2.246968 0.3 109.24438 340
2.2233896 0.3 109.24431 341
2.1998272 0.3 109.24545 341
2.17628 0.3 109.2478 359
2.1526856 0.3 109.24653 387
2.1291072 0.3 109.24646 386
2.1055741 0.3 109.25002 365
2.0820696 0.3 109.25601 381
2.0585194 0.3 109.25837 393
2.0349245 0.3 109.25709 371
2.0113301 0.3 109.2558 349
1.9877931 0.3 109.25937 331
1.9642547 0.3 109.26293 324
1.9406465 0.3 109.26044 350
1.917012 0.3 109.255516 377
1.8934327 0.3 109.25545 379
1.8698666 0.3 109.256584 364
1.8462744 0.3 109.2553 334
1.8227081 0.3 109.25644 313
1.7991922 0.3 109.26242 309
1.7757117 0.3 109.27204 337
1.7521914 0.3 109.27803 331
1.7285972 0.3 109.27674 342
1.7050153 0.3 109.27667 364
1.6814569 0.3 109.27902 379
1.6579093 0.3 109.28258 375
1.6343268 0.3 109.2825 372
1.6107335 0.3 109.28121 380
1.5871624 0.3 109.28235 385
1.5635911 0.3 109.283485 368
1.5400406 0.3 109.28705 356
1.5164787 0.3 109.28939 356
1.4929061 0.3 109.29053 336
1.4693631 0.3 109.295296 316
1.4458773 0.3 109.30734 328
1.4223783 0.3 109.31818 301
1.3988008 0.3 109.31931 305
1.375214 0.3 109.31923 317
1.3516363 0.3 109.320366 312
1.3280672 0.3 109.32271 303
1.3044888 0.3 109.32384 323
1.2809101 0.3 109.324974 359
1.2573313 0.3 109.3261 394
1.2337279 0.3 109.3236 423
1.2101256 0.3 109.32109 429
1.1865547 0.3 109.32343 408
1.1629982 0.3 109.3282 379
1.1394038 0.3 109.326904 351
1.1158028 0.3 109.324394 330
1.0922096 0.3 109.323105 325
1.0686302 0.3 109.32423 328
1.0450507 0.3 109.325356 329
1.0214392 0.3 109.32043 348
0.99782926 0.3 109.31549 377
0.97424483 0.3 109.31541 387
0.95065475 0.3 109.3141 390
0.9270484 0.3 109.30917 390
0.9034544 0.3 109.306656 400
0.8798925 0.3 109.311424 382
0.8563142 0.3 109.312546 402
0.83272594 0.3 109.31125 407
0.8091288 0.3 109.307526 392
0.7855419 0.3 109.30622 390
0.76198095 0.3 109.312195 406
0.7384101 0.3 109.31574 405
0.71483433 0.3 109.31808 394
0.69125414 0.3 109.31921 387
0.6676597 0.3 109.315475 396
0.64406645 0.3 109.31175 411
0.6204775 0.3 109.309235 424
0.59686303 0.3 109.29581 436
0.573272 0.3 109.29087 453
0.5496877 0.3 109.28835 459
0.52610415 0.3 109.28584 434
0.50252587 0.3 109.28575 397
0.47895357 0.3 109.28929 388
0.45537844 0.3 109.29162 396
0.431801 0.3 109.29274 404
0.4082204 0.3 109.291435 407
0.38464272 0.3 109.29255 403
0.3610668 0.3 109.2961 399
0.33748895 0.3 109.29842 401
0.3139124 0.3 109.30439 375
0.2903345 0.3 109.31156 391
0.26675323 0.3 109.31389 383
0.24317107 0.3 109.3138 360
0.21958922 0.3 109.31006 345
0.19600941 0.3 109.30269 370
0.17243147 0.3 109.29653 355
0.14885281 0.3 109.29523 364
0.12527373 0.3 109.29513 378
0.10169367 0.3 109.29624 385
0.078109555 0.3 109.30099 406
0.05452824 0.3 109.3021 396
0.030951414 0.3 109.299576 365
0.0073826048 0.3 109.292206 318
-0.016185872 0.3 109.28604 312
-0.039752405 0.3 109.279884 312
-0.06332412 0.3 109.27736 320
-0.08689505 0.3 109.27483 338
-0.11045414 0.3 109.26746 369
-0.13401976 0.3 109.263725 354
-0.15759364 0.3 109.263626 351
-0.1811708 0.3 109.26473 389
-0.2047554 0.3 109.26826 413
-0.22833739 0.3 109.27058 445
-0.25193185 0.3 109.276535 456
-0.27552 0.3 109.28006 460
-0.2990964 0.3 109.27995 465
-0.32268175 0.3 109.28227 471
-0.34628654 0.3 109.28944 474
-0.3698985 0.3 109.29781 448
-0.39347774 0.3 109.2977 455
-0.41705173 0.3 109.29638 459
-0.44064164 0.3 109.2987 451
-0.46424922 0.3 109.30465 458
-0.4878471 0.3 109.308174 448
-0.51142806 0.3 109.30807 452
-0.53499657 0.3 109.305534 458
-0.55858356 0.3 109.30663 459
-0.5821775 0.3 109.308945 453
-0.6057519 0.3 109.307625 460
-0.6293399 0.3 109.30872 467
-0.6529354 0.3 109.311035 460
-0.676517 0.3 109.31092 473
-0.700091 0.3 109.30959 494
-0.723688 0.3 109.311905 492
-0.7472857 0.3 109.31422 479
-0.7708435 0.3 109.31046 459
-0.79434997 0.3 109.29944 431
-0.81790423 0.3 109.29569 453
-0.8414836 0.3 109.29557 456
-0.865063 0.3 109.295456 458
-0.8885876 0.3 109.28807 498
-0.9121565 0.3 109.28674 494
-0.9357441 0.3 109.287834 483
-0.9593127 0.3 109.28651 500
-0.98285115 0.3 109.28154 518
-1.0064487 0.3 109.283844 502
-1.0300575 0.3 109.28736 487
-1.053678 0.3 109.29208 464
-1.0772895 0.3 109.2956 474
-1.1009021 0.3 109.29911 479
-1.1244491 0.3 109.29536 480
-1.1480291 0.3 109.295235 474
-1.1716896 0.3 109.3036 491
-1.1953062 0.3 109.307106 487
-1.2188524 0.3 109.30335 479
-1.2423731 0.3 109.297165 449
-1.265929 0.3 109.29462 461
-1.2894964 0.3 109.29328 458
-1.3130255 0.3 109.28831 467
-1.3365657 0.3 109.284546 457
-1.3601049 0.3 109.280785 453
-1.3836429 0.3 109.27702 457
-1.4072337 0.3 109.27811 466
-1.430866 0.3 109.28283 476
-1.4544861 0.3 109.28634 474
-1.4780792 0.3 109.28742 482
-1.501644 0.3 109.28608 494
-1.5252376 0.3 109.28716 484
-1.5488756 0.3 109.29188 453
-1.5724407 0.3 109.290535 469
-1.5959297 0.3 109.283134 504
-1.6195543 0.3 109.286644 492
-1.6432422 0.3 109.29499 458
-1.6668386 0.3 109.296074 459
-1.6904036 0.3 109.29473 459
-1.713968 0.3 109.29338 463
-1.7375321 0.3 109.29204 467
-1.7610959 0.3 109.290695 468
-1.7847261 0.3 109.2942 466
-1.8083068 0.3 109.29406 467
-1.8318188 0.3 109.28908 470
-1.8553466 0.3 109.28531 502
-1.8788908 0.3 109.28275 518
-1.9024518 0.3 109.2814 528
-1.9260843 0.3 109.284904 494
-1.9497544 0.3 109.290825 490
-1.9733897 0.3 109.29432 487
-1.9968592 0.3 109.28691 489
-2.0202699 0.3 109.27587 512
-2.0438285 0.3 109.27452 499
-2.0674446 0.3 109.2768 502
-2.0910614 0.3 109.27909 509
-2.1146004 0.3 109.27653 506
-2.1381783 0.3 109.27638 497
-2.1617563 0.3 109.276245 490
-2.1853545 0.3 109.27731 486
-2.2089734 0.3 109.279594 487
-2.2325726 0.3 109.28067 498
-2.2562554 0.3 109.28658 482
-2.279835 0.3 109.286446 480
-2.30333 0.3 109.281456 496
-2.3268015 0.3 109.27525 492
-2.350293 0.3 109.270256 485
-2.3738263 0.3 109.26769 467
-2.397425 0.3 109.26876 457
-2.4209795 0.3 109.2674 466
-2.4444664 0.3 109.26241 487
-2.4679513 0.3 109.257416 471
-2.4916632 0.3 109.26454 493
-2.5153778 0.3 109.27167 495
-2.5389783 0.3 109.272736 497
-2.5625558 0.3 109.27258 500
-2.5861332 0.3 109.27244 513
-2.6097105 0.3 109.27229 510
-2.633312 0.3 109.27335 497
-2.656938 0.3 109.275635 488
-2.6805406 0.3 109.276695 491
-2.704094 0.3 109.27533 503
-2.727647 0.3 109.27397 506
-2.7511995 0.3 109.27261 490
-2.7748022 0.3 109.273674 480
-2.79838 0.3 109.27352 495
-2.821906 0.3 109.27094 515
-2.8454056 0.3 109.26716 512
-2.8688776 0.3 109.26216 498
-2.8923743 0.3 109.25837 499
-2.9159493 0.3 109.25822 507
-2.9396045 0.3 109.2617 507
-2.9631531 0.3 109.26034 507
-2.986593 0.3 109.25413 480
-3.0100853 0.3 109.250336 476
-3.0337138 0.3 109.25261 487
-3.0572603 0.3 109.251236 474
-3.0806944 0.3 109.245026 449
-3.1042671 0.3 109.24487 458
-3.1279247 0.3 109.24835 470
-3.1515265 0.3 109.249405 476
-3.1750998 0.3 109.24925 470
-3.1986156 0.3 109.24667 456
-3.2221303 0.3 109.24409 445
-3.245644 0.3 109.24151 449
-3.2690687 0.3 109.23529 488
-3.2924912 0.3 109.22908 502
-3.3159118 0.3 109.22286 516
-3.3394506 0.3 109.2215 523
-3.362989 0.3 109.22012 518
-3.3865879 0.3 109.221176 507
-3.4101872 0.3 109.22223 498
-3.4337559 0.3 109.22207 487
-3.4573557 0.3 109.22312 476
-3.4809246 0.3 109.22296 485
-3.5044935 0.3 109.2228 502
-3.528062 0.3 109.22263 495
-3.5516627 0.3 109.22369 479
-3.5751996 0.3 109.22231 491
-3.5986714 0.3 109.21851 511
-3.622207 0.3 109.21714 520
-3.6458073 0.3 109.21819 521
-3.6693752 0.3 109.21803 513
-3.692943 0.3 109.217865 507
-3.716544 0.3 109.21891 500
-3.7401788 0.3 109.221176 500
-3.7638142 0.3 109.223434 508
-3.7874167 0.3 109.22448 505
-3.8109171 0.3 109.22189 498
-3.83428 0.3 109.214455 502
-3.8575373 0.3 109.20339 483
-3.8810332 0.3 109.200806 478
-3.904389 0.3 109.19337 499
-3.9278474 0.3 109.18957 503
-3.951375 0.3 109.188194 502
-3.9748666 0.3 109.18561 510
-3.9983575 0.3 109.183014 522
-4.021919 0.3 109.182846 521
-4.0455523 0.3 109.185104 519
-4.069114 0.3 109.18494 517
-4.0926394 0.3 109.183556 511
-4.1162004 0.3 109.18339 516
-4.139652 0.3 109.17958 523
-4.1631384 0.3 109.176994 518
-4.1866612 0.3 109.17561 519
-4.210184 0.3 109.17423 527
-4.2338185 0.3 109.17648 526
-4.2574534 0.3 109.178734 516
-4.2809377 0.3 109.17614 509
-4.3043833 0.3 109.17233 515
-4.3277125 0.3 109.1649 489
-4.3510776 0.3 109.158676 475
-4.374364 0.3 109.15003 488
-4.3977637 0.3 109.14502 497
-4.4212008 0.3 109.14121 505
-4.444715 0.3 109.13983 497
-4.468229 0.3 109.13845 490
-4.4917026 0.3 109.13586 488
-4.5150957 0.3 109.130844 498
-4.538567 0.3 109.12825 511
-4.562158 0.3 109.12928 511
-4.585709 0.3 109.129105 500
-4.6092196 0.3 109.12772 499
-4.632526 0.3 109.120285 485
-4.6559525 0.3 109.11648 495
-4.6794186 0.3 109.113884 494
-4.702719 0.3 109.10645 536
-4.7260585 0.3 109.10023 541
-4.7495623 0.3 109.09884 523
-4.7731495 0.3 109.09988 517
-4.796611 0.3 109.097275 519
-4.8199444 0.3 109.09105 510
-4.8434033 0.3 109.088455 505
-4.8668184 0.3 109.08465 476
-4.890361 0.3 109.08447 476
-4.913989 0.3 109.08671 510
-4.937445 0.3 109.084114 504
-4.960857 0.3 109.08031 464
-4.984311 0.3 109.077705 463
-5.0078077 0.3 109.07632 466
-5.0313044 0.3 109.07493 468
-5.0547557 0.3 109.07233 471
-5.0780735 0.3 109.0661 498
-5.101523 0.3 109.06351 497
-5.1250157 0.3 109.06211 495
-5.1484184 0.3 109.058304 498
-5.17191 0.3 109.056915 495
-5.1954007 0.3 109.05552 491
-5.2188005 0.3 109.05171 505
-5.2421985 0.3 109.047905 513
-5.265641 0.3 109.0453 506
-5.2890368 0.3 109.0415 477
-5.3125234 0.3 109.0401 491
-5.3359632 0.3 109.0375 500
-5.359402 0.3 109.0349 507
-5.38298 0.3 109.03592 509
-5.406558 0.3 109.03695 497
-5.4300423 0.3 109.03555 489
-5.453526 0.3 109.03416 482
-5.4767714 0.3 109.026726 495
-5.5001097 0.3 109.021706 483
-5.523638 0.3 109.021515 489
-5.5472136 0.3 109.02254 510
-5.5706935 0.3 109.02114 510
-5.5942693 0.3 109.02216 488
-5.6178937 0.3 109.02439 479
-5.64147 0.3 109.025406 484
-5.6651936 0.3 109.03005 454
-5.6885247 0.3 109.02503 477
-5.7117558 0.3 109.01759 489
-5.7352314 0.3 109.0162 502
-5.7587566 0.3 109.01601 499
-5.782082 0.3 109.01099 498
-5.805205 0.3 109.00114 484
-5.8285255 0.3 108.99612 487
-5.8518953 0.3 108.9923 468
-5.8752127 0.3 108.98728 464
-5.8985796 0.3 108.98347 453
-5.9218426 0.3 108.97724 464
-5.945001 0.3 108.9686 472
-5.9681053 0.3 108.95875 468
-5.9910517 0.3 108.94528 470
-6.014304 0.3 108.93906 491
-6.0375543 0.3 108.93283 515
-6.0608544 0.3 108.92781 524
-6.084153 0.3 108.92279 524
-6.107292 0.3 108.914154 504
-6.1304812 0.3 108.90673 507
-6.1536674 0.3 108.8993 529
-6.177011 0.3 108.895485 517
-6.2003527 0.3 108.89168 496
-6.2237463 0.3 108.88907 482
-6.247139 0.3 108.88646 479
-6.270369 0.3 108.88024 472
-6.293489 0.3 108.871605 444
-6.316606 0.3 108.86297 481
-6.339992 0.3 108.86037 495
-6.3633766 0.3 108.85776 506
-6.386651 0.3 108.85274 512
-6.4100337 0.3 108.850136 501
-6.43347 0.3 108.84873 475
-6.456961 0.3 108.84853 462
-6.4806185 0.3 108.85195 471
-6.50411 0.3 108.85175 485
-6.527321 0.3 108.84553 491
-6.5503616 0.3 108.835686 468
-6.5735674 0.3 108.82947 476
-6.596715 0.3 108.82204 507
-6.620143 0.3 108.82063 497
-6.643798 0.3 108.82405 492
-6.6673965 0.3 108.826256 465
-6.6909957 0.3 108.82846 467
-6.714653 0.3 108.83187 470
-6.7384834 0.3 108.8389 484
-6.762085 0.3 108.8411 483
-6.7853966 0.3 108.83729 479
-6.8085904 0.3 108.83106 491
-6.8318987 0.3 108.82725 477
-6.8554397 0.3 108.82825 461
-6.878922 0.3 108.82804 462
-6.902286 0.3 108.825424 474
-6.9254713 0.3 108.8192 505
-6.9489512 0.3 108.81899 504
-6.9722524 0.3 108.81518 508
-6.9954324 0.3 108.80895 503
-7.01861 0.3 108.80272 497
-7.0417852 0.3 108.79649 498
-7.0647774 0.3 108.78666 468
-7.087766 0.3 108.77682 490
-7.1109943 0.3 108.7718 491
-7.134342 0.3 108.76918 507
-7.157689 0.3 108.76657 518
-7.1812186 0.3 108.76756 511
-7.204809 0.3 108.76976 508
-7.228215 0.3 108.76834 519
-7.251621 0.3 108.76693 521
-7.27515 0.3 108.76792 514
-7.2986784 0.3 108.76891 511
-7.3220196 0.3 108.7663 521
-7.3452973 0.3 108.762474 527
-7.368699 0.3 108.761055 516
-7.3921003 0.3 108.75964 507
-7.415058 0.3 108.7498 491
-7.4381394 0.3 108.74237 504
-7.4614725 0.3 108.73975 495
-7.4847403 0.3 108.73592 518
-7.50839 0.3 108.73932 486
-7.531976 0.3 108.74151 477
-7.555177 0.3 108.73648 514
-7.578505 0.3 108.73386 526
-7.6024137 0.3 108.74206 492
-7.6260004 0.3 108.74425 486
-7.649392 0.3 108.74283 474
-7.672979 0.3 108.74501 464
-7.696501 0.3 108.745995 469
-7.719891 0.3 108.744576 472
-7.7432146 0.3 108.74195 466
-7.766273 0.3 108.73451 495
-7.7895937 0.3 108.73189 497
-7.812979 0.3 108.73046 500
-7.8364305 0.3 108.73024 517
-7.8598814 0.3 108.73002 518
-7.883265 0.3 108.72859 494
-7.906715 0.3 108.72836 477
-7.9302316 0.3 108.72935 469
-7.9536133 0.3 108.72791 475
-7.9767904 0.3 108.722885 497
-8.000306 0.3 108.723854 503
-8.023821 0.3 108.72483 491
-8.047131 0.3 108.7222 483
-8.070439 0.3 108.71957 499
-8.09361 0.3 108.71453 502
-8.116916 0.3 108.7119 476
-8.140013 0.3 108.70566 447
-8.163108 0.3 108.69942 458
-8.186201 0.3 108.693184 481
-8.20957 0.3 108.69175 479
-8.233007 0.3 108.69152 485
-8.256095 0.3 108.68528 491
-8.278969 0.3 108.67543 488
-8.302261 0.3 108.6728 476
-8.325694 0.3 108.67256 465
-8.348914 0.3 108.668724 451
-8.372062 0.3 108.66368 437
-8.394923 0.3 108.65384 410
-8.417851 0.3 108.645195 340
-8.440848 0.3 108.63776 255
-8.46456 0.3 108.64232 204
-8.488344 0.3 108.64809 191
-8.512345 0.3 108.65746 219
-8.535844 0.3 108.658424 245
-8.558835 0.3 108.65098 252
-8.582041 0.3 108.64713 252
-8.605172 0.3 108.64209 235
-8.628156 0.3 108.63464 222
-8.651503 0.3 108.6332 194
-8.675069 0.3 108.63536 153
-8.698267 0.3 108.631516 134
-8.722276 0.3 108.640884 138
-8.7457695 0.3 108.64184 142
-8.769188 0.3 108.641594 135
-8.792606 0.3 108.64135 133
-8.81677 0.3 108.653114 132
-8.840488 0.3 108.65768 141
-8.863908 0.3 108.65743 155
-8.8871765 0.3 108.65478 162
-8.909765 0.3 108.64132 158
-8.932048 0.3 108.62306 176
-8.955081 0.3 108.61681 185
-8.977884 0.3 108.606964 195
-9.000836 0.3 108.59951 238
-9.023634 0.3 108.58966 299
-9.046044 0.3 108.573814 367
-9.068987 0.3 108.56637 418
-9.092003 0.3 108.56012 442
-9.115017 0.3 108.55387 435
-9.138105 0.3 108.54882 428
-9.161192 0.3 108.54378 449
-9.183811 0.3 108.53153 470
-9.206893 0.3 108.52648 466
-9.23005 0.3 108.52264 440
-9.253363 0.3 108.52119 422
-9.276204 0.3 108.51254 432
-9.298492 0.3 108.49551 419
-9.32117 0.3 108.48447 449
-9.344079 0.3 108.47703 458
-9.366906 0.3 108.46838 463
-9.390127 0.3 108.46574 461
-9.412869 0.3 108.455894 426
-9.43537 0.3 108.44247 456
-9.457867 0.3 108.42904 463
-9.480359 0.3 108.41562 422
-9.503246 0.3 108.40818 427
