-21.4488 5.7 0.799152
-21.4766 5.7 0.801018
-21.5066 5.7 0.806529
-21.541 5.7 0.819337
-21.5738 5.7 0.829499
-21.6045 5.7 0.836016
-21.6329 5.7 0.838881
-21.6635 5.7 0.845398
-21.6921 5.7 0.848597
-21.724 5.7 0.857112
-21.7569 5.7 0.867297
-21.788 5.7 0.87449
-21.8999 5.7 0.926425
-21.9329 5.7 0.936648
-21.961 5.7 0.93886
-21.9899 5.7 0.942412
-22.0166 5.7 0.942285
-22.0428 5.7 0.941496
-22.0687 5.7 0.940034
-22.093 5.7 0.936237
-22.1174 5.7 0.932444
-22.1428 5.7 0.930316
-22.1686 5.7 0.928857
-22.1957 5.7 0.9294
-22.2231 5.7 0.93061
-22.2502 5.7 0.931153
-22.2762 5.7 0.930028
-22.3018 5.7 0.928233
-22.3259 5.7 0.924106
-22.3494 5.7 0.918976
-22.3742 5.7 0.915849
-22.3975 5.7 0.91039
-22.4262 5.7 0.913598
-22.4536 5.7 0.914808
-22.4798 5.7 0.914015
-22.5075 5.7 0.915558
-22.5351 5.7 0.917101
-22.563 5.7 0.918976
-22.5913 5.7 0.921519
-22.6179 5.7 0.921392
-22.6426 5.7 0.918265
-22.6678 5.7 0.915804
-22.6929 5.7 0.913342
-22.7197 5.7 0.913549
-22.7486 5.7 0.917091
-22.7784 5.7 0.921968
-22.8074 5.7 0.92551
-22.8342 5.7 0.925717
-22.8599 5.7 0.924255
-22.8859 5.7 0.923126
-22.9121 5.7 0.92233
-22.9372 5.7 0.919866
-22.9631 5.7 0.918737
-22.988 5.7 0.91594
24.1567 6 0.885467
24.1302 6 0.885551
24.1035 6 0.885305
24.0775 6 0.886055
24.0521 6 0.887802
24.0254 6 0.887556
23.9974 6 0.885311
23.9707 6 0.885066
23.9446 6 0.885816
23.9192 6 0.887563
23.8927 6 0.88765
23.8662 6 0.887734
23.8399 6 0.888154
23.8136 6 0.888572
23.7867 6 0.887993
23.7589 6 0.886081
23.7326 6 0.886498
23.7057 6 0.88592
23.6779 6 0.884008
23.6506 6 0.882763
23.6232 6 0.881518
23.5963 6 0.880939
23.569 6 0.879694
23.5425 6 0.879778
23.5173 6 0.881861
23.4914 6 0.882944
23.4643 6 0.882032
23.4374 6 0.88145
23.4096 6 0.879542
23.3841 6 0.881288
23.3591 6 0.883704
23.3324 6 0.883455
23.3025 6 0.878219
23.2739 6 0.874978
23.2445 6 0.870408
23.2157 6 0.866834
23.188 6 0.864923
23.1585 6 0.860356
23.1277 6 0.853461
23.0989 6 0.84989
23.0668 6 0.841009
23.0339 6 0.830802
23.001 6 0.820601
22.9697 6 0.813056
22.94 6 0.807836
22.91 6 0.802283
22.88 6 0.796733
22.848 6 0.787874
22.8162 6 0.779346
22.7875 6 0.775788
-3.16426 6 0.39731
-3.19127 6 0.401499
-3.21819 6 0.40471
-3.24488 6 0.405642
-3.27161 6 0.406903
-3.29884 6 0.413045
-3.32494 6 0.408116
-3.35141 6 0.40677
-3.37804 6 0.407052
-3.40495 6 0.409937
-3.43176 6 0.411848
-3.45867 6 0.414733
-3.48545 6 0.416318
-3.51238 6 0.419206
-3.53906 6 0.419811
-3.56552 6 0.418462
-3.59166 6 0.414183
-3.61769 6 0.408928
-3.64407 6 0.406929
-3.67041 6 0.404604
-3.6963 6 0.398374
-3.72267 6 0.396376
-3.74903 6 0.394377
-3.77513 6 0.390101
-3.80141 6 0.387453
-21.4255 6 0.804576
-21.4554 6 0.81009
-21.4858 6 0.816267
-21.5184 6 0.826096
-21.5529 6 0.838917
-21.5807 6 0.840786
-21.6083 6 0.842322
-21.6387 6 0.848513
-21.6728 6 0.860683
-21.7035 6 0.86721
-21.739 6 0.881725
-21.7726 6 0.892922
-21.8031 6 0.899125
-21.9069 6 0.937774
-21.9416 6 0.950675
-21.9662 6 0.947211
-21.9912 6 0.944414
-22.0191 6 0.946296
-22.0451 6 0.94517
-22.0699 6 0.94204
-22.0964 6 0.94158
-22.1244 6 0.943796
-22.1519 6 0.945005
-22.1811 6 0.94889
-22.2077 6 0.948767
-22.2325 6 0.945636
-22.2587 6 0.944844
-22.2847 6 0.943718
-22.3104 6 0.941923
-22.3355 6 0.939459
-22.3618 6 0.938666
-22.3878 6 0.937541
-22.4113 6 0.932408
-22.4358 6 0.928944
-22.4624 6 0.928818
-22.4897 6 0.929695
-22.5165 6 0.929905
-22.5436 6 0.930445
-22.57 6 0.929986
-22.5955 6 0.928191
-22.6219 6 0.927731
-22.6486 6 0.927605
-22.6756 6 0.928145
-22.7035 6 0.930021
-22.732 6 0.9329
-22.7582 6 0.932107
-22.7854 6 0.932981
-22.8091 6 0.928181
-22.8342 6 0.925717
-22.8614 6 0.92659
-22.89 6 0.929465
-22.9159 6 0.928336
-22.9419 6 0.927208
-22.9678 6 0.926079
-22.9942 6 0.925616
-23.0204 6 0.924817
-23.047 6 0.924691
-23.0744 6 0.925894
-23.1006 6 0.925099
-23.1259 6 0.922967
24.1578 6.3 0.887129
24.1335 6.3 0.890541
24.1042 6.3 0.886301
24.077 6.3 0.885389
24.0506 6.3 0.885473
24.0252 6.3 0.887223
23.9987 6.3 0.887307
23.9713 6.3 0.886062
23.9444 6.3 0.885483
23.9172 6.3 0.884571
23.8903 6.3 0.883989
23.864 6.3 0.884409
23.8382 6.3 0.885493
23.8128 6.3 0.887239
23.7856 6.3 0.886327
23.7591 6.3 0.886414
23.7331 6.3 0.887165
23.7072 6.3 0.888248
23.6809 6.3 0.888665
23.6532 6.3 0.886754
23.6247 6.3 0.883846
23.5959 6.3 0.880273
23.5709 6.3 0.882689
23.5457 6.3 0.884768
23.5198 6.3 0.885852
23.4933 6.3 0.885939
23.4662 6.3 0.885027
23.4393 6.3 0.884445
23.4128 6.3 0.884532
23.3863 6.3 0.884616
23.3598 6.3 0.8847
23.3326 6.3 0.883788
23.3028 6.3 0.878552
23.2748 6.3 0.876307
23.2458 6.3 0.872401
23.2176 6.3 0.869826
23.1869 6.3 0.863264
23.1581 6.3 0.85969
23.126 6.3 0.850802
23.0931 6.3 0.840592
23.0593 6.3 0.829059
23.0276 6.3 0.82085
22.9983 6.3 0.81629
22.9668 6.3 0.808415
22.9373 6.3 0.803528
22.9067 6.3 0.796982
22.8765 6.3 0.791102
22.8441 6.3 0.781581
22.8133 6.3 0.774714
22.782 6.3 0.766855
-3.16512 6.3 0.406098
-3.1922 6.3 0.410939
-3.219 6.3 0.412848
-3.24622 6.3 0.418993
-3.27283 6.3 0.418951
-3.29927 6.3 0.417278
-3.32605 6.3 0.418863
-3.35272 6.3 0.419471
-3.3792 6.3 0.418126
-3.40567 6.3 0.416777
-3.4321 6.3 0.415105
-3.45829 6.3 0.411153
-3.48486 6.3 0.410781
-3.51156 6.3 0.411712
-3.53874 6.3 0.416881
-3.5657 6.3 0.420092
-3.59202 6.3 0.41744
-3.61834 6.3 0.414791
-3.64465 6.3 0.412139
-3.67125 6.3 0.412094
-3.69804 6.3 0.413676
-3.7245 6.3 0.412327
-3.75039 6.3 0.406095
-3.77619 6.3 0.399212
-3.8021 6.3 0.39331
-21.4277 6.3 0.808224
-21.4589 6.3 0.815727
-21.4886 6.3 0.820909
-21.5174 6.3 0.824437
-21.5521 6.3 0.837587
-21.5819 6.3 0.842778
-21.6117 6.3 0.847969
-21.643 6.3 0.855489
-21.6783 6.3 0.869661
-21.7092 6.3 0.876524
-21.7417 6.3 0.886052
-21.776 6.3 0.898581
-21.8041 6.3 0.90079
-21.888 6.3 0.950588
-21.9163 6.3 0.953139
-21.9434 6.3 0.953683
-21.9699 6.3 0.953224
-21.9963 6.3 0.952767
-22.0222 6.3 0.951306
-22.048 6.3 0.949847
-22.0749 6.3 0.950057
-22.1023 6.3 0.951267
-22.129 6.3 0.951144
-22.1561 6.3 0.951687
-22.1833 6.3 0.952567
-22.2092 6.3 0.951105
-22.2358 6.3 0.950982
-22.2668 6.3 0.957874
-22.2935 6.3 0.957751
-22.3174 6.3 0.953282
-22.3443 6.3 0.953492
-22.3714 6.3 0.954035
-22.3963 6.3 0.951238
-22.4184 6.3 0.94376
-22.4425 6.3 0.939627
-22.4691 6.3 0.939504
-22.496 6.3 0.939711
-22.5226 6.3 0.939585
-22.5501 6.3 0.940798
-22.5784 6.3 0.943343
-22.6031 6.3 0.940209
-22.6304 6.3 0.941086
-22.6564 6.3 0.93996
-22.679 6.3 0.933488
-22.706 6.3 0.934028
-22.7354 6.3 0.938243
-22.7605 6.3 0.935778
-22.7848 6.3 0.931978
-22.8095 6.3 0.928847
-22.8342 6.3 0.925717
-22.8634 6.3 0.929594
-22.8883 6.3 0.926797
-22.9146 6.3 0.926334
-22.9415 6.3 0.926541
-22.9659 6.3 0.923074
24.1559 6.6 0.884137
24.1307 6.6 0.886217
24.1042 6.6 0.886301
24.0773 6.6 0.885722
24.0501 6.6 0.88481
24.0247 6.6 0.886557
23.9989 6.6 0.88764
23.9726 6.6 0.888057
23.9446 6.6 0.885816
23.9175 6.6 0.884904
23.8905 6.6 0.884322
23.8638 6.6 0.884076
23.8371 6.6 0.883827
23.8102 6.6 0.883248
23.7831 6.6 0.882336
23.7553 6.6 0.880425
23.7303 6.6 0.882841
23.7044 6.6 0.883924
23.6779 6.6 0.884008
23.6502 6.6 0.882097
23.6254 6.6 0.884846
23.6002 6.6 0.886925
23.5752 6.6 0.889341
23.5476 6.6 0.887763
23.5205 6.6 0.886851
23.4933 6.6 0.885939
23.4666 6.6 0.88569
23.4397 6.6 0.885111
23.4121 6.6 0.883533
23.3854 6.6 0.883287
23.3591 6.6 0.883704
23.3326 6.6 0.883788
23.3044 6.6 0.881214
23.2752 6.6 0.876974
23.2449 6.6 0.871071
23.2151 6.6 0.865838
23.1852 6.6 0.860602
23.1533 6.6 0.852048
23.1206 6.6 0.84217
23.0878 6.6 0.832293
23.0557 6.6 0.823418
23.021 6.6 0.810239
22.9904 6.6 0.803693
22.9585 6.6 0.795161
22.9273 6.6 0.787625
22.8972 6.6 0.781749
22.8668 6.6 0.775542
22.8354 6.6 0.767683
22.8071 6.6 0.764785
22.7778 6.6 0.760238
-3.16397 6.6 0.394383
-3.19085 6.6 0.397268
-3.21763 6.6 0.399177
-3.24478 6.6 0.404665
-3.27151 6.6 0.405926
-3.29831 6.6 0.407835
-3.32531 6.6 0.411699
-3.35205 6.6 0.412958
-3.37893 6.6 0.415519
-3.4056 6.6 0.416127
-3.43224 6.6 0.416408
-3.45881 6.6 0.416037
-3.48538 6.6 0.415668
-3.51202 6.6 0.415949
-3.5387 6.6 0.416554
-3.56531 6.6 0.416509
-3.59202 6.6 0.41744
-3.61856 6.6 0.416745
-3.64509 6.6 0.416046
-3.67166 6.6 0.415674
-3.69819 6.6 0.414979
-3.72424 6.6 0.410047
-3.75069 6.6 0.408698
-3.77714 6.6 0.407349
-3.80355 6.6 0.405674
-3.82995 6.6 0.404002
-3.85643 6.6 0.402977
-3.88288 6.6 0.401628
-3.90881 6.6 0.396049
-3.93516 6.6 0.394047
-21.4327 6.6 0.816513
-21.4653 6.6 0.826342
-21.4975 6.6 0.835511
-21.5283 6.6 0.842361
-21.5611 6.6 0.852536
-21.5916 6.6 0.858726
-21.6257 6.6 0.870906
-21.6551 6.6 0.875441
-21.6882 6.6 0.885965
-21.7183 6.6 0.891502
-21.7476 6.6 0.89571
-21.7805 6.6 0.905913
-21.8585 6.6 0.946037
-21.8854 6.6 0.946247
-21.9114 6.6 0.945122
-21.9395 6.6 0.947334
-21.9664 6.6 0.947544
-21.9937 6.6 0.948424
-22.0199 6.6 0.947632
-22.0437 6.6 0.942832
-22.0689 6.6 0.940368
-22.0964 6.6 0.94158
-22.1232 6.6 0.941791
-22.1492 6.6 0.940665
-22.1734 6.6 0.936535
-22.1988 6.6 0.934407
-22.2234 6.6 0.930943
-22.2494 6.6 0.929817
-22.275 6.6 0.928026
-22.2991 6.6 0.923896
-22.3232 6.6 0.919769
-22.3473 6.6 0.915642
-22.375 6.6 0.917185
-22.4077 6.6 0.926735
-22.4364 6.6 0.929947
-22.4637 6.6 0.930823
-22.4911 6.6 0.932033
-22.5176 6.6 0.931574
-22.5436 6.6 0.930445
-22.5687 6.6 0.927984
-22.5943 6.6 0.926189
-22.6228 6.6 0.929067
-22.6517 6.6 0.932612
-22.6794 6.6 0.934155
-22.7071 6.6 0.935697
-22.7312 6.6 0.931564
-22.7567 6.6 0.929769
-22.7831 6.6 0.92931
-22.8099 6.6 0.929514
-22.837 6.6 0.930057
-22.8657 6.6 0.933265
-22.8925 6.6 0.933472
-22.9172 6.6 0.930338
-22.9432 6.6 0.929209
-22.9698 6.6 0.92908
24.2903 6.9 0.886705
24.2634 6.9 0.886127
24.2351 6.9 0.883549
24.2082 6.9 0.88297
24.1813 6.9 0.882388
24.1537 6.9 0.880813
24.1254 6.9 0.878235
24.0994 6.9 0.878985
24.0749 6.9 0.882064
24.049 6.9 0.883148
24.0223 6.9 0.882899
23.9958 6.9 0.882983
23.9694 6.9 0.88307
23.942 6.9 0.881825
23.9129 6.9 0.877918
23.8862 6.9 0.877672
23.8606 6.9 0.879086
23.8339 6.9 0.87884
23.8098 6.9 0.882582
23.7848 6.9 0.884998
23.7591 6.9 0.886414
23.7341 6.9 0.888827
23.7074 6.9 0.888581
23.6784 6.9 0.884674
23.651 6.9 0.883429
23.6235 6.9 0.881851
23.5963 6.9 0.880939
23.5711 6.9 0.883018
23.545 6.9 0.883772
23.5164 6.9 0.880528
23.4895 6.9 0.879949
23.4615 6.9 0.877708
23.434 6.9 0.87613
23.407 6.9 0.875551
23.3808 6.9 0.875968
23.3534 6.9 0.874723
23.325 6.9 0.871815
23.2971 6.9 0.869571
23.2678 6.9 0.865334
23.2372 6.9 0.858772
23.205 6.9 0.849887
23.1733 6.9 0.841669
23.142 6.9 0.834117
23.1095 6.9 0.824579
23.0772 6.9 0.815375
23.0439 6.9 0.804521
23.0114 6.9 0.794993
22.9814 6.9 0.789446
22.9502 6.9 0.781914
22.9203 6.9 0.77637
-3.16314 6.9 0.385926
-3.18985 6.9 0.387184
-3.21653 6.9 0.388116
-3.24351 6.9 0.391977
-3.27065 6.9 0.397462
-3.29778 6.9 0.402627
-3.32461 6.9 0.404862
-3.35171 6.9 0.409701
-3.37869 6.9 0.413239
-3.40539 6.9 0.41417
-3.43214 6.9 0.415428
-3.45919 6.9 0.41962
-3.48605 6.9 0.421855
-3.51266 6.9 0.421813
-3.53906 6.9 0.419811
-3.56506 6.9 0.414229
-3.59076 6.9 0.406043
-3.61699 6.9 0.402744
-3.64359 6.9 0.402699
-3.67041 6.9 0.404604
-3.69723 6.9 0.406512
-3.7239 6.9 0.407117
-3.75031 6.9 0.405441
-3.77672 6.9 0.403769
-3.80282 6.9 0.39949
-3.82876 6.9 0.393911
-3.85481 6.9 0.389312
-3.88109 6.9 0.386663
-3.90756 6.9 0.385638
-3.93398 6.9 0.384289
-21.2886 6.9 0.798563
-21.3192 6.9 0.805067
-21.3471 6.9 0.807263
-21.3767 6.9 0.812115
-21.4097 6.9 0.822607
-21.4421 6.9 0.832105
-21.4753 6.9 0.84294
-21.5087 6.9 0.854111
-21.5412 6.9 0.863626
-21.571 6.9 0.868823
-21.6021 6.9 0.87602
-21.6285 6.9 0.875564
-21.6571 6.9 0.878769
-21.6957 6.9 0.898287
-21.8054 6.9 0.946619
-21.8349 6.9 0.95117
-21.863 6.9 0.953385
-21.8899 6.9 0.953595
-21.9161 6.9 0.952803
-21.9424 6.9 0.952011
-21.9662 6.9 0.947211
-21.9918 6.9 0.945416
-22.0191 6.9 0.946296
-22.0457 6.9 0.94617
-22.072 6.9 0.945377
-22.1009 6.9 0.948928
-22.1284 6.9 0.950141
-22.1555 6.9 0.950685
-22.1802 6.9 0.947554
-22.2052 6.9 0.94476
-22.2306 6.9 0.942628
-22.2571 6.9 0.942172
-22.2835 6.9 0.941713
-22.3078 6.9 0.937916
-22.3347 6.9 0.938123
-22.3611 6.9 0.937664
-22.3865 6.9 0.935536
-22.4106 6.9 0.931406
-22.4364 6.9 0.929947
-22.4618 6.9 0.927819
-22.4878 6.9 0.926693
-22.5136 6.9 0.925231
-22.54 6.9 0.924772
-22.5653 6.9 0.922644
-22.5896 6.9 0.91885
-22.6156 6.9 0.917722
-22.6422 6.9 0.917595
-22.6684 6.9 0.916803
-22.6952 6.9 0.91701
-22.7227 6.9 0.918216
-22.7535 6.9 0.924762
-22.7803 6.9 0.924969
-22.8053 6.9 0.922172
-22.8306 6.9 0.920044
-22.8587 6.9 0.922253
24.2894 7.2 0.885376
24.2616 7.2 0.883465
24.2347 7.2 0.882886
24.2082 7.2 0.88297
24.1817 7.2 0.883054
24.1556 7.2 0.883804
24.1305 7.2 0.885884
24.1031 7.2 0.884639
24.0764 7.2 0.884393
24.0503 7.2 0.885143
24.0236 7.2 0.884894
23.9963 7.2 0.883649
23.9698 7.2 0.883733
23.9442 7.2 0.88515
23.9192 7.2 0.887563
23.8931 7.2 0.888316
23.8668 7.2 0.888733
23.8401 7.2 0.888484
23.8147 7.2 0.890234
23.7865 7.2 0.88766
23.7606 7.2 0.888743
23.7335 7.2 0.887831
23.7057 7.2 0.88592
23.6807 7.2 0.888332
23.6547 7.2 0.889086
23.6275 7.2 0.888171
23.5997 7.2 0.886262
23.5717 7.2 0.884018
23.5435 7.2 0.881443
23.5143 7.2 0.877203
23.4872 7.2 0.876291
23.4594 7.2 0.87438
23.4314 7.2 0.872139
23.4026 7.2 0.868568
23.3738 7.2 0.864994
23.346 7.2 0.863086
23.3177 7.2 0.860178
23.288 7.2 0.855279
23.2578 7.2 0.849386
23.2277 7.2 0.843823
23.1981 7.2 0.83893
23.1668 7.2 0.831378
23.1351 7.2 0.823169
23.1003 7.2 0.809987
23.0662 7.2 0.79781
23.0331 7.2 0.787292
23.002 7.2 0.780093
22.9715 7.2 0.773556
22.9397 7.2 0.765037
22.9081 7.2 0.756852
-3.29718 7.2 0.39677
-3.32374 7.2 0.396402
-3.35036 7.2 0.396683
-3.37743 7.2 0.401195
-3.40457 7.2 0.406357
-3.43148 7.2 0.409241
-3.45819 7.2 0.410176
-3.48486 7.2 0.410781
-3.51174 7.2 0.413342
-3.53842 7.2 0.413947
-3.56481 7.2 0.411948
-3.59119 7.2 0.40995
-3.6179 7.2 0.410881
-3.64458 7.2 0.411486
-3.67114 7.2 0.411117
-3.69723 7.2 0.406512
-3.7236 7.2 0.404513
-3.75009 7.2 0.403491
-3.77672 7.2 0.403769
-3.80343 7.2 0.404697
-3.82965 7.2 0.401395
-3.85585 7.2 0.398096
-3.88202 7.2 0.394468
-3.90841 7.2 0.392795
-3.93492 7.2 0.392097
-21.2938 7.2 0.807179
-21.3259 7.2 0.816339
-21.3557 7.2 0.821523
-21.3861 7.2 0.827704
-21.4185 7.2 0.837209
-21.4485 7.2 0.84273
-21.4767 7.2 0.845265
-21.5091 7.2 0.854777
-21.5388 7.2 0.859638
-21.5694 7.2 0.866165
-21.6041 7.2 0.879348
-21.6321 7.2 0.881553
-21.7598 7.2 0.959563
-21.7861 7.2 0.95877
-21.8134 7.2 0.95965
-21.8372 7.2 0.954847
-21.8632 7.2 0.953722
-21.8878 7.2 0.950255
-21.9129 7.2 0.947457
-21.9377 7.2 0.944329
-21.9662 7.2 0.947211
-21.9912 7.2 0.944414
-22.0178 7.2 0.944291
-22.0459 7.2 0.946506
-22.0714 7.2 0.944378
-22.0945 7.2 0.938576
-22.1185 7.2 0.934113
-22.1439 7.2 0.931984
-22.1682 7.2 0.928187
-22.1936 7.2 0.926063
-22.2202 7.2 0.92594
-22.2483 7.2 0.928149
-22.2752 7.2 0.928359
-22.3001 7.2 0.925565
-22.3264 7.2 0.924772
-22.3544 7.2 0.926984
-22.3794 7.2 0.92419
-22.4069 7.2 0.9254
-22.4364 7.2 0.929947
-22.4641 7.2 0.93149
-22.4897 7.2 0.929695
-22.5163 7.2 0.929568
-22.544 7.2 0.931114
-22.5698 7.2 0.929653
-22.5953 7.2 0.927858
-22.6211 7.2 0.926396
-22.6471 7.2 0.92527
-22.6735 7.2 0.924811
-22.7003 7.2 0.925018
-22.7271 7.2 0.925225
-22.7514 7.2 0.921428
-22.7776 7.2 0.920632
-22.8038 7.2 0.919837
-22.8304 7.2 0.919711
-22.8574 7.2 0.920251
24.4258 7.5 0.890942
24.398 7.5 0.889031
24.3706 7.5 0.887782
24.3441 7.5 0.88787
24.3176 7.5 0.887954
24.2907 7.5 0.887372
24.2645 7.5 0.887789
24.2384 7.5 0.888539
24.2137 7.5 0.891285
24.1874 7.5 0.891702
24.1611 7.5 0.89212
24.1344 7.5 0.891874
24.107 7.5 0.890625
24.0799 7.5 0.889713
24.0519 7.5 0.887469
24.0252 7.5 0.887223
23.998 7.5 0.886311
23.9713 7.5 0.886062
23.9446 7.5 0.885816
23.9181 7.5 0.8859
23.8918 7.5 0.886317
23.8653 7.5 0.886405
23.8386 7.5 0.886156
23.8126 7.5 0.886906
23.7865 7.5 0.88766
23.7602 7.5 0.888077
23.7341 7.5 0.888827
23.7081 7.5 0.889577
23.6818 7.5 0.889998
23.6544 7.5 0.888753
23.6256 7.5 0.885179
23.5978 7.5 0.883267
23.5696 7.5 0.88069
23.541 7.5 0.877449
23.5132 7.5 0.875541
23.484 7.5 0.871304
23.4543 7.5 0.866401
23.4238 7.5 0.860172
23.395 7.5 0.856601
23.3649 7.5 0.851039
23.3368 7.5 0.848467
23.3063 7.5 0.842241
23.2754 7.5 0.835356
23.2447 7.5 0.828803
23.2164 7.5 0.825902
23.1868 7.5 0.821009
23.157 7.5 0.815789
23.1259 7.5 0.808576
23.0934 7.5 0.799052
23.0589 7.5 0.786218
-3.29741 7.5 0.399047
-3.32424 7.5 0.401282
-3.35087 7.5 0.401563
-3.37756 7.5 0.402495
-3.4043 7.5 0.403753
-3.43103 7.5 0.405011
-3.45766 7.5 0.405292
-3.48433 7.5 0.405897
-3.51114 7.5 0.407805
-3.53785 7.5 0.408737
-3.56456 7.5 0.409672
-3.59108 7.5 0.408973
-3.61758 7.5 0.407951
-3.64392 7.5 0.405626
-3.6703 7.5 0.403627
-3.69686 7.5 0.403255
-3.72353 7.5 0.403863
-3.75016 7.5 0.404141
-3.7768 7.5 0.404419
-3.80347 7.5 0.405024
-3.82988 7.5 0.403349
-3.85609 7.5 0.400047
-3.88233 7.5 0.397071
-3.90865 7.5 0.394746
-3.93496 7.5 0.39242
-21.3083 7.5 0.831394
-21.3381 7.5 0.836582
-21.3653 7.5 0.837455
-21.3927 7.5 0.838658
-21.4243 7.5 0.846841
-21.4555 7.5 0.854357
-21.4877 7.5 0.863542
-21.5158 7.5 0.865744
-21.6735 7.5 0.949575
-21.6997 7.5 0.948783
-21.7256 7.5 0.947324
-21.7521 7.5 0.946865
-21.7765 7.5 0.943068
-21.8023 7.5 0.94161
-21.829 7.5 0.941483
-21.8538 7.5 0.938356
-21.8802 7.5 0.937897
-21.9073 7.5 0.93844
-21.9358 7.5 0.941322
-21.9625 7.5 0.941199
-21.9897 7.5 0.942075
-22.0152 7.5 0.93995
-22.041 7.5 0.938488
-22.0699 7.5 0.94204
-22.0988 7.5 0.945588
-22.1263 7.5 0.9468
-22.1546 7.5 0.949349
-22.1802 7.5 0.947554
-22.2036 7.5 0.942085
-22.2298 7.5 0.941293
-22.256 7.5 0.9405
-22.2841 7.5 0.942716
-22.3114 7.5 0.943592
-22.3376 7.5 0.9428
-22.3634 7.5 0.941338
-22.3894 7.5 0.940212
-22.4146 7.5 0.937748
-22.4417 7.5 0.938291
-22.4712 7.5 0.942842
-22.5006 7.5 0.947059
-22.5268 7.5 0.946267
-22.5511 7.5 0.942467
-22.5771 7.5 0.941338
-22.6027 7.5 0.939543
-22.63 7.5 0.940419
-22.6598 7.5 0.945303
-22.6864 7.5 0.945177
-22.7132 7.5 0.945384
-22.7409 7.5 0.94693
-22.7682 7.5 0.947803
-22.7948 7.5 0.947677
-22.8208 7.5 0.946548
-22.8463 7.5 0.94475
-22.87 7.5 0.939944
-22.893 7.5 0.934138
-22.9198 7.5 0.934345
-22.9485 7.5 0.937557
-22.9751 7.5 0.937428
-23.0019 7.5 0.937635
-23.0285 7.5 0.937505
24.4234 7.8 0.887284
24.3967 7.8 0.887035
24.3706 7.8 0.887782
24.3446 7.8 0.888533
24.3183 7.8 0.88895
24.2916 7.8 0.888701
24.2645 7.8 0.887789
24.2373 7.8 0.886877
24.211 7.8 0.887294
24.1852 7.8 0.888374
24.1587 7.8 0.888462
24.132 7.8 0.888213
24.1055 7.8 0.888297
24.0788 7.8 0.888051
24.0521 7.8 0.887802
24.0258 7.8 0.888222
24.0011 7.8 0.890968
23.9743 7.8 0.890719
23.9478 7.8 0.890806
23.9216 7.8 0.891224
23.8927 7.8 0.88765
23.8653 7.8 0.886405
23.8397 7.8 0.887821
23.8119 7.8 0.88591
23.7846 7.8 0.884665
23.7574 7.8 0.883753
23.7303 7.8 0.882841
23.7025 7.8 0.880929
23.676 7.8 0.881013
23.6485 7.8 0.879438
23.6196 7.8 0.875864
23.5923 7.8 0.874619
23.5656 7.8 0.874373
23.5367 7.8 0.8708
23.5075 7.8 0.866563
23.4761 7.8 0.859004
23.4456 7.8 0.852778
23.4151 7.8 0.846553
23.3846 7.8 0.84033
23.3554 7.8 0.8361
23.3266 7.8 0.832532
23.2968 7.8 0.827309
23.2668 7.8 0.821753
23.2372 7.8 0.816863
23.2057 7.8 0.80899
23.1753 7.8 0.802778
23.1451 7.8 0.796898
23.1169 7.8 0.79433
23.0861 7.8 0.787457
23.0532 7.8 0.777279
-3.42975 7.8 0.39297
-3.45641 7.8 0.393578
-3.4831 7.8 0.39451
-3.51008 7.8 0.398041
-3.53685 7.8 0.399623
-3.56334 7.8 0.398604
-3.58997 7.8 0.398882
-3.61667 7.8 0.399814
-3.64333 7.8 0.400419
-3.67 7.8 0.401023
-3.6966 7.8 0.400978
-3.72327 7.8 0.401583
-3.7499 7.8 0.401861
-3.77657 7.8 0.402466
-3.80317 7.8 0.40242
-3.82953 7.8 0.400422
-3.85593 7.8 0.398746
-3.88229 7.8 0.396748
-3.90857 7.8 0.394096
-3.93512 7.8 0.393724
-21.1443 7.8 0.779967
-21.1778 7.8 0.791432
-21.2125 7.8 0.804896
-21.2448 7.8 0.814388
-21.2755 7.8 0.821229
-21.3061 7.8 0.827742
-21.3359 7.8 0.83293
-21.3639 7.8 0.835129
-21.3941 7.8 0.840983
-21.4199 7.8 0.839531
-21.5923 7.8 0.947942
-21.6175 7.8 0.945481
-21.6426 7.8 0.942686
-21.6692 7.8 0.94256
-21.6959 7.8 0.942437
-21.7223 7.8 0.941978
-21.749 7.8 0.941855
-21.7769 7.8 0.943734
-21.8064 7.8 0.948288
-21.8353 7.8 0.951839
-21.8618 7.8 0.95138
-21.8874 7.8 0.949588
-21.9159 7.8 0.95247
-21.9432 7.8 0.95335
-21.9703 7.8 0.953893
-21.9969 7.8 0.95377
-22.0236 7.8 0.953644
-22.0509 7.8 0.954524
-22.0782 7.8 0.955403
-22.1063 7.8 0.957619
-22.1305 7.8 0.953482
-22.1567 7.8 0.95269
-22.185 7.8 0.955242
-22.2113 7.8 0.954446
-22.235 7.8 0.949643
-22.2596 7.8 0.946179
-22.2864 7.8 0.94639
-22.3126 7.8 0.945597
-22.3405 7.8 0.947476
-22.3651 7.8 0.944009
-22.3892 7.8 0.939879
-22.4138 7.8 0.936415
-22.4396 7.8 0.934953
-22.4633 7.8 0.930154
-22.4872 7.8 0.925691
-22.5113 7.8 0.921561
-22.5379 7.8 0.921434
-22.5687 7.8 0.927984
-22.5964 7.8 0.929526
-22.6238 7.8 0.930736
-22.6524 7.8 0.933614
-22.6809 7.8 0.936493
-22.7069 7.8 0.935364
-22.7307 7.8 0.930898
-22.7546 7.8 0.926431
24.5532 8.1 0.882873
24.5264 8.1 0.882624
24.5 8.1 0.882708
24.4735 8.1 0.882792
24.4483 8.1 0.884872
24.4234 8.1 0.887284
24.3973 8.1 0.888031
24.3697 8.1 0.886453
24.3424 8.1 0.885208
24.3148 8.1 0.88363
24.2898 8.1 0.886042
24.2638 8.1 0.886793
24.2366 8.1 0.885877
24.2104 8.1 0.886295
24.1843 8.1 0.887045
24.1567 8.1 0.885467
24.1302 8.1 0.885551
24.1048 8.1 0.887301
24.0794 8.1 0.889047
24.0543 8.1 0.89113
24.028 8.1 0.891547
23.9998 8.1 0.888973
23.9709 8.1 0.885399
23.9429 8.1 0.883154
23.9144 8.1 0.880247
23.8869 8.1 0.878668
23.8595 8.1 0.877423
23.8306 8.1 0.873853
23.8018 8.1 0.870282
23.7744 8.1 0.869037
23.7475 8.1 0.868458
23.7204 8.1 0.867546
23.6935 8.1 0.866964
23.6657 8.1 0.865056
23.6363 8.1 0.860489
23.6079 8.1 0.857585
23.5795 8.1 0.85468
23.5513 8.1 0.852106
23.5216 8.1 0.847209
23.4918 8.1 0.841983
23.4632 8.1 0.838749
23.434 8.1 0.834518
23.4035 8.1 0.828299
23.3736 8.1 0.823075
23.3455 8.1 0.820508
23.3159 8.1 0.815617
23.2865 8.1 0.81106
23.2577 8.1 0.807496
23.2271 8.1 0.800953
23.1956 8.1 0.793085
23.1667 8.1 0.789194
23.1392 8.1 0.787622
23.1107 8.1 0.784394
23.0811 8.1 0.779514
23.0503 8.1 0.772648
-21.148 8.1 0.786257
-21.1827 8.1 0.799715
-21.2121 8.1 0.804233
-21.2478 8.1 0.819363
-21.2791 8.1 0.827202
-21.3123 8.1 0.838034
-21.3429 8.1 0.844551
-21.3753 8.1 0.854062
-21.5464 8.1 0.960555
-21.5706 8.1 0.956422
-21.5947 8.1 0.951953
-21.6218 8.1 0.952496
-21.6495 8.1 0.954045
-21.6767 8.1 0.954921
-21.7046 8.1 0.956804
-21.7344 8.1 0.961694
-21.7714 8.1 0.978628
-21.7926 8.1 0.969472
-21.8154 8.1 0.962994
-21.837 8.1 0.954514
-21.8628 8.1 0.953052
-21.8899 8.1 0.953595
-21.9174 8.1 0.954808
-21.9477 8.1 0.960701
-21.9767 8.1 0.964255
-22.0031 8.1 0.963796
-22.0319 8.1 0.967017
-22.0573 8.1 0.964886
-22.0811 8.1 0.960083
-22.1096 8.1 0.962968
-22.1358 8.1 0.962176
-22.1604 8.1 0.958706
-22.1873 8.1 0.958916
-22.2133 8.1 0.95779
-22.2381 8.1 0.954656
-22.2625 8.1 0.950856
-22.2891 8.1 0.950733
-22.3145 8.1 0.948602
-22.337 8.1 0.941797
-22.3609 8.1 0.937331
-22.3861 8.1 0.934869
-22.4131 8.1 0.935413
-22.4394 8.1 0.93462
-22.4649 8.1 0.932825
-22.4918 8.1 0.933032
-22.519 8.1 0.933909
-22.5457 8.1 0.933783
-22.5721 8.1 0.933323
-22.5979 8.1 0.931862
-22.6247 8.1 0.932072
-22.6513 8.1 0.931946
-22.6771 8.1 0.930484
-22.7033 8.1 0.929688
-22.7299 8.1 0.929562
-22.7554 8.1 0.927767
24.5587 8.4 0.891188
24.5304 8.4 0.88861
24.5031 8.4 0.887365
24.4755 8.4 0.885784
24.449 8.4 0.885868
24.4225 8.4 0.885952
24.396 8.4 0.886036
24.3686 8.4 0.884791
24.3415 8.4 0.883879
24.3152 8.4 0.884293
24.2898 8.4 0.886042
24.2645 8.4 0.887789
24.2386 8.4 0.888872
24.2141 8.4 0.891951
24.1878 8.4 0.892369
24.16 8.4 0.890457
24.1313 8.4 0.887216
24.104 8.4 0.885968
24.0779 8.4 0.886718
24.0532 8.4 0.889467
24.0273 8.4 0.890551
24.0008 8.4 0.890635
23.9752 8.4 0.892052
23.9507 8.4 0.895131
23.9255 8.4 0.897213
23.8983 8.4 0.896301
23.8692 8.4 0.892394
23.8384 8.4 0.885822
23.8011 8.4 0.869283
23.7708 8.4 0.863387
23.7422 8.4 0.860149
23.7116 8.4 0.853923
23.6819 8.4 0.849027
23.6561 8.4 0.850107
23.6281 8.4 0.847869
23.6002 8.4 0.845628
23.5729 8.4 0.844386
23.5451 8.4 0.842478
23.5165 8.4 0.839243
23.4886 8.4 0.837005
23.4594 8.4 0.832775
23.4291 8.4 0.826885
23.3984 8.4 0.820339
23.3696 8.4 0.816775
23.3411 8.4 0.813544
23.3125 8.4 0.810313
23.2817 8.4 0.803437
23.2525 8.4 0.799213
23.2231 8.4 0.79466
23.1923 8.4 0.787787
-21.1615 8.4 0.808787
-21.19 8.4 0.811979
-21.2224 8.4 0.821475
-21.2539 8.4 0.829647
-21.2865 8.4 0.839483
-21.3167 8.4 0.84534
-21.4535 8.4 0.939549
-21.4888 8.4 0.953786
-21.5165 8.4 0.955332
-21.5442 8.4 0.956878
-21.57 8.4 0.95542
-21.5937 8.4 0.950284
-21.6181 8.4 0.946483
-21.6419 8.4 0.941684
-21.6678 8.4 0.940225
-21.6945 8.4 0.940099
-21.7205 8.4 0.938974
-21.7449 8.4 0.93518
-21.7675 8.4 0.928378
-21.7933 8.4 0.92692
-21.8204 8.4 0.927463
-21.8524 8.4 0.936018
-21.8829 8.4 0.942237
-21.9098 8.4 0.942447
-21.9356 8.4 0.940988
-21.9621 8.4 0.940533
-21.9883 8.4 0.93974
-22.0133 8.4 0.936946
-22.0389 8.4 0.935151
-22.0654 8.4 0.934695
-22.0912 8.4 0.933233
-22.1151 8.4 0.92877
-22.1412 8.4 0.927644
-22.169 8.4 0.929523
-22.1955 8.4 0.929067
-22.2117 8.4 0.912262
-22.2365 8.4 0.909138
-22.2721 8.4 0.923352
-22.2991 8.4 0.923896
-22.3259 8.4 0.924106
-22.3563 8.4 0.929986
-22.3876 8.4 0.937208
-22.4142 8.4 0.937082
-22.4383 8.4 0.932952
-22.4628 8.4 0.929488
-22.4886 8.4 0.928026
-22.5136 8.4 0.925231
-22.5375 8.4 0.920768
-22.5628 8.4 0.91864
-22.5892 8.4 0.918181
-22.616 8.4 0.918391
-22.6403 8.4 0.914594
-22.665 8.4 0.911467
-22.6935 8.4 0.914342
-22.7254 8.4 0.922553
24.5567 8.7 0.888193
24.5309 8.7 0.889277
24.5037 8.7 0.888361
24.477 8.7 0.888112
24.4508 8.7 0.88853
24.4245 8.7 0.888947
24.3995 8.7 0.891359
24.3739 8.7 0.892773
24.3477 8.7 0.89319
24.321 8.7 0.892941
24.294 8.7 0.892362
24.2671 8.7 0.89178
24.241 8.7 0.89253
24.2159 8.7 0.894613
24.1896 8.7 0.89503
24.1626 8.7 0.894448
24.1355 8.7 0.893536
24.1083 8.7 0.892624
24.0818 8.7 0.892708
24.0551 8.7 0.892459
24.0289 8.7 0.89288
24.0026 8.7 0.893297
23.9756 8.7 0.892718
23.9498 8.7 0.893801
23.9242 8.7 0.895218
23.897 8.7 0.894303
23.8694 8.7 0.892724
23.8427 8.7 0.892479
23.8167 8.7 0.893229
23.7899 8.7 0.892983
23.763 8.7 0.892404
23.7361 8.7 0.891822
23.7089 8.7 0.89091
23.6777 8.7 0.883675
23.6442 8.7 0.872785
23.6143 8.7 0.867552
23.5846 8.7 0.862653
23.5549 8.7 0.857753
23.5242 8.7 0.851194
23.4926 8.7 0.843312
23.4625 8.7 0.837752
23.4323 8.7 0.831863
23.4009 8.7 0.824317
23.3715 8.7 0.819757
23.3425 8.7 0.815863
23.3121 8.7 0.80965
23.2814 8.7 0.803104
23.2529 8.7 0.799876
23.2231 8.7 0.79466
23.1927 8.7 0.78845
-21.1571 8.7 0.801494
-21.1877 8.7 0.808001
-21.2228 8.7 0.822138
-21.2615 8.7 0.842264
-21.2977 8.7 0.858089
-21.3312 8.7 0.869603
-21.3593 8.7 0.871809
-21.438 8.7 0.913857
-21.4769 8.7 0.934083
-21.5082 8.7 0.941635
-21.5331 8.7 0.938508
-21.5603 8.7 0.939384
-21.5923 8.7 0.947942
-21.6224 8.7 0.953498
-21.6517 8.7 0.957719
-21.679 8.7 0.958599
-21.7046 8.7 0.956804
-21.7291 8.7 0.953004
-21.7551 8.7 0.951878
-21.7818 8.7 0.951752
-21.8095 8.7 0.953301
-21.838 8.7 0.956183
-21.863 8.7 0.953385
-21.8897 8.7 0.953262
-21.9159 8.7 0.95247
-21.942 8.7 0.951344
-21.968 8.7 0.950219
-21.9922 8.7 0.946086
-22.0166 8.7 0.942285
-22.0424 8.7 0.940827
-22.068 8.7 0.939032
-22.0945 8.7 0.938576
-22.1209 8.7 0.938117
-22.1457 8.7 0.934989
-22.1703 8.7 0.931525
-22.1965 8.7 0.930736
-22.2248 8.7 0.933281
-22.2521 8.7 0.934158
-22.2789 8.7 0.934368
-22.3053 8.7 0.933909
-22.3312 8.7 0.932447
-22.3557 8.7 0.928986
-22.3817 8.7 0.927861
-22.4083 8.7 0.927735
-22.436 8.7 0.929277
-22.4641 8.7 0.93149
-22.4926 8.7 0.934368
-22.5205 8.7 0.936247
-22.5457 8.7 0.933783
-22.5693 8.7 0.928986
-22.5951 8.7 0.927524
-22.6217 8.7 0.927398
-22.6486 8.7 0.927605
-22.6754 8.7 0.927812
-22.7026 8.7 0.928689
24.5592 9 0.891854
24.5309 9 0.889277
24.5046 9 0.889691
24.4797 9 0.892103
24.4532 9 0.892187
24.4252 9 0.889943
24.4 9 0.892022
24.3735 9 0.89211
24.347 9 0.892194
24.319 9 0.889949
24.2918 9 0.889034
24.2645 9 0.887789
24.2386 9 0.888872
24.2126 9 0.889623
24.1867 9 0.890703
24.1616 9 0.892786
24.1355 9 0.893536
24.1073 9 0.890958
24.0814 9 0.892042
24.0554 9 0.892792
24.0293 9 0.893546
24.0024 9 0.892964
23.9735 9 0.88939
23.9472 9 0.889807
23.9231 9 0.893552
23.8977 9 0.895302
23.8714 9 0.895722
23.8438 9 0.894141
23.8154 9 0.891233
23.7884 9 0.890654
23.7615 9 0.890072
23.7339 9 0.888494
23.7053 9 0.885253
23.6771 9 0.882679
23.6461 9 0.87578
23.6153 9 0.869215
23.585 9 0.863319
23.5541 9 0.856423
23.5255 9 0.853189
23.4973 9 0.850615
23.4687 9 0.847381
23.439 9 0.842484
23.4052 9 0.830951
23.3724 9 0.821086
23.3423 9 0.815533
23.3102 9 0.806665
23.2808 9 0.802111
23.2521 9 0.79855
23.2233 9 0.79499
23.1921 9 0.787457
-21.1619 9 0.80945
-21.195 9 0.820271
-21.2283 9 0.831429
-21.2595 9 0.838943
-21.2897 9 0.8448
-21.3201 9 0.850987
-21.3565 9 0.867151
-21.3923 9 0.882333
-21.428 9 0.897194
-21.4646 9 0.913734
-21.4999 9 0.927951
-21.5276 9 0.929494
-21.5565 9 0.933042
-21.5862 9 0.937926
-21.6161 9 0.943142
-21.6432 9 0.943686
-21.6698 9 0.943563
-21.6983 9 0.946445
-21.726 9 0.947991
-21.7527 9 0.947868
-21.7808 9 0.950083
-21.8078 9 0.950626
-21.8327 9 0.947496
-21.8569 9 0.943366
-21.8827 9 0.941904
-21.9094 9 0.941781
-21.9358 9 0.941322
-21.9623 9 0.940866
-21.9899 9 0.942412
-22.0197 9 0.947298
-22.0424 9 0.940827
-22.0689 9 0.940368
-22.0968 9 0.94225
-22.123 9 0.941457
-22.147 9 0.936991
-22.1742 9 0.937871
-22.2023 9 0.940083
-22.2275 9 0.937622
-22.2517 9 0.933488
-22.2785 9 0.933699
-22.3062 9 0.935245
-22.3334 9 0.936121
-22.3595 9 0.934996
-22.3844 9 0.932198
-22.4125 9 0.93441
-22.4408 9 0.936955
-22.4683 9 0.938168
-22.4935 9 0.935704
-22.519 9 0.933909
-22.5431 9 0.929779
-22.5681 9 0.926981
-22.5949 9 0.927191
-22.6203 9 0.925063
-22.6454 9 0.922599
-22.6697 9 0.918805
24.5558 9.3 0.886864
24.532 9.3 0.890939
24.5062 9.3 0.892019
24.4781 9.3 0.889775
24.4508 9.3 0.88853
24.424 9.3 0.888281
24.3978 9.3 0.888698
24.3715 9.3 0.889115
24.3448 9.3 0.888866
24.3194 9.3 0.890612
24.2934 9.3 0.891363
24.2673 9.3 0.892113
24.241 9.3 0.89253
24.2143 9.3 0.892284
24.1865 9.3 0.890373
24.1598 9.3 0.890124
24.1333 9.3 0.890208
24.107 9.3 0.890625
24.0818 9.3 0.892708
24.0554 9.3 0.892792
24.0282 9.3 0.89188
24.0011 9.3 0.890968
23.9743 9.3 0.890719
23.9496 9.3 0.893468
23.9227 9.3 0.892886
23.8942 9.3 0.889978
23.8673 9.3 0.8894
23.8408 9.3 0.889484
23.8139 9.3 0.888905
23.7871 9.3 0.888656
23.7602 9.3 0.888077
23.7322 9.3 0.885832
23.7044 9.3 0.883924
23.6773 9.3 0.883012
23.6485 9.3 0.879438
23.6181 9.3 0.873536
23.5878 9.3 0.867637
23.5579 9.3 0.862407
23.5267 9.3 0.855182
23.4981 9.3 0.851944
23.4691 9.3 0.848044
23.4378 9.3 0.840492
23.4075 9.3 0.834602
23.3777 9.3 0.829379
23.347 9.3 0.822826
23.314 9.3 0.812632
23.2812 9.3 0.802774
23.2506 9.3 0.796232
23.221 9.3 0.791348
23.1921 9.3 0.787457
-15.031 9.3 0.515068
-15.058 9.3 0.516258
-15.0845 9.3 0.516145
-15.1105 9.3 0.514722
-15.1363 9.3 0.512972
-15.1618 9.3 0.510569
-15.1877 9.3 0.509146
-15.2142 9.3 0.50903
-15.2401 9.3 0.507607
-15.2663 9.3 0.506837
-21.1506 9.3 0.790562
-21.1837 9.3 0.801371
-21.2168 9.3 0.812189
-21.2523 9.3 0.826992
-21.2853 9.3 0.83749
-21.3161 9.3 0.844344
-21.3467 9.3 0.850864
-21.3967 9.3 0.889658
-21.4249 9.3 0.892197
-21.4582 9.3 0.903067
-21.4949 9.3 0.91961
-21.5242 9.3 0.923821
-21.5537 9.3 0.928369
-21.5862 9.3 0.937926
-21.6157 9.3 0.942476
-21.6405 9.3 0.939346
-21.6696 9.3 0.94323
-21.6981 9.3 0.946112
-21.7286 9.3 0.952334
-21.7555 9.3 0.952544
-21.782 9.3 0.952088
-21.8089 9.3 0.952299
-21.8339 9.3 0.949501
-21.8595 9.3 0.947706
-21.885 9.3 0.945578
-21.9087 9.3 0.940778
-21.9327 9.3 0.936315
-21.958 9.3 0.933854
-21.984 9.3 0.932728
-22.0131 9.3 0.936609
-22.0422 9.3 0.940494
-22.0683 9.3 0.939368
-22.0935 9.3 0.936907
-22.1193 9.3 0.935445
-22.1443 9.3 0.932651
-22.1709 9.3 0.932528
-22.1992 9.3 0.935073
-22.2269 9.3 0.936619
-22.2508 9.3 0.932156
-22.2758 9.3 0.929362
-22.3012 9.3 0.927233
-22.3274 9.3 0.926441
-22.354 9.3 0.926315
-22.3811 9.3 0.926858
-22.4079 9.3 0.927068
-22.4331 9.3 0.924607
-22.462 9.3 0.928152
-22.4895 9.3 0.929362
-22.5159 9.3 0.928902
-22.5417 9.3 0.92744
-22.5666 9.3 0.924646
-22.5924 9.3 0.923187
-22.6167 9.3 0.91939
-22.6437 9.3 0.919931
-22.6726 9.3 0.923475
24.556 9.6 0.887197
24.5293 9.6 0.886948
24.5035 9.6 0.888028
24.477 9.6 0.888112
24.4508 9.6 0.88853
24.4258 9.6 0.890942
24.3995 9.6 0.891359
24.3726 9.6 0.890777
24.3463 9.6 0.891195
24.3192 9.6 0.890282
24.2923 9.6 0.8897
24.2655 9.6 0.889451
24.2397 9.6 0.890535
24.2132 9.6 0.890619
24.1872 9.6 0.891369
24.1611 9.6 0.89212
24.1344 9.6 0.891874
24.107 9.6 0.890625
24.0794 9.6 0.889047
24.053 9.6 0.889134
24.0267 9.6 0.889552
24.0002 9.6 0.889636
23.9737 9.6 0.889723
23.9452 9.6 0.886812
23.9179 9.6 0.885567
23.8916 9.6 0.885987
23.8653 9.6 0.886405
23.8391 9.6 0.886822
23.8139 9.6 0.888905
23.7878 9.6 0.889655
23.7598 9.6 0.887411
23.732 9.6 0.885499
23.7046 9.6 0.884254
23.6771 9.6 0.882679
23.6472 9.6 0.877443
23.617 9.6 0.871873
23.5867 9.6 0.865977
23.5579 9.6 0.862407
23.5289 9.6 0.858503
23.499 9.6 0.853273
23.4691 9.6 0.848044
23.4401 9.6 0.844143
23.4122 9.6 0.841905
23.3827 9.6 0.837342
23.3504 9.6 0.828134
23.3176 9.6 0.818269
23.2844 9.6 0.807745
23.2514 9.6 0.797558
23.2212 9.6 0.791678
23.1918 9.6 0.787124
-21.1502 9.6 0.789899
-21.1829 9.6 0.800048
-21.217 9.6 0.812519
-21.2573 9.6 0.835291
-21.2895 9.6 0.844467
-21.3245 9.6 0.858299
-21.3559 9.6 0.866155
-21.3881 9.6 0.875344
-21.4211 9.6 0.885871
-21.4552 9.6 0.898067
-21.4885 9.6 0.908941
-21.5252 9.6 0.92549
-21.5583 9.6 0.936047
-21.5842 9.6 0.934588
-21.6096 9.6 0.93246
-21.6426 9.6 0.942686
-21.6719 9.6 0.946904
-21.6989 9.6 0.947447
-21.7254 9.6 0.946988
-21.7506 9.6 0.944527
-21.7761 9.6 0.942399
-21.8025 9.6 0.941943
-21.8312 9.6 0.945157
-21.8565 9.6 0.942696
-21.8848 9.6 0.945245
-21.9145 9.6 0.950132
-21.9377 9.6 0.944329
-21.9627 9.6 0.941532
-21.9881 9.6 0.939404
-22.0145 9.6 0.938948
-22.0412 9.6 0.938825
-22.0683 9.6 0.939368
-22.0949 9.6 0.939242
-22.1216 9.6 0.939119
-22.1488 9.6 0.939996
-22.1769 9.6 0.942211
-22.2038 9.6 0.942421
-22.2313 9.6 0.943631
-22.2604 9.6 0.947515
-22.2864 9.6 0.94639
-22.3106 9.6 0.942256
-22.3339 9.6 0.936787
-22.358 9.6 0.932657
-22.385 9.6 0.933201
-22.4125 9.6 0.93441
-22.4394 9.6 0.93462
-22.4658 9.6 0.934161
-22.4918 9.6 0.933032
-22.5171 9.6 0.930904
-22.5404 9.6 0.925438
-22.5655 9.6 0.922977
-22.593 9.6 0.924187
-22.6209 9.6 0.926063
-22.6496 9.6 0.929274
-22.6771 9.6 0.930484
24.5603 9.9 0.893517
24.534 9.9 0.893934
24.5073 9.9 0.893685
24.4808 9.9 0.893769
24.4554 9.9 0.895515
24.4291 9.9 0.895933
24.4022 9.9 0.895351
24.3757 9.9 0.895435
24.3497 9.9 0.896185
24.3236 9.9 0.896935
24.2967 9.9 0.896353
24.2682 9.9 0.893446
24.2408 9.9 0.892197
24.2148 9.9 0.892947
24.1885 9.9 0.893365
24.162 9.9 0.893452
24.1357 9.9 0.893869
24.1088 9.9 0.893287
24.0821 9.9 0.893041
24.0558 9.9 0.893458
24.0275 9.9 0.890881
23.9998 9.9 0.888973
23.9737 9.9 0.889723
23.9489 9.9 0.892469
23.9231 9.9 0.893552
23.8972 9.9 0.894636
23.8694 9.9 0.892724
23.8436 9.9 0.893811
23.8169 9.9 0.893562
23.7899 9.9 0.892983
23.7641 9.9 0.894067
23.7365 9.9 0.892488
23.7089 9.9 0.89091
23.6818 9.9 0.889998
23.6536 9.9 0.88742
23.6254 9.9 0.884846
23.5961 9.9 0.880606
23.5651 9.9 0.873707
23.5327 9.9 0.864483
23.5026 9.9 0.85892
23.4712 9.9 0.851365
23.4393 9.9 0.842817
23.4094 9.9 0.837591
23.3831 9.9 0.838005
23.3552 9.9 0.835767
23.3243 9.9 0.828884
23.2922 9.9 0.820009
23.2594 9.9 0.810148
23.229 9.9 0.803935
23.1931 9.9 0.789113
-21.3125 9.9 0.838364
-21.3457 9.9 0.849202
-21.3767 9.9 0.856391
-21.4135 9.9 0.873225
-21.4472 9.9 0.884749
-21.4792 9.9 0.893614
-21.5155 9.9 0.909484
-21.546 9.9 0.915694
-21.5745 9.9 0.918572
-21.6041 9.9 0.923449
-21.6342 9.9 0.928999
-21.6666 9.9 0.93822
-21.6957 9.9 0.942104
-21.7252 9.9 0.946655
-21.7529 9.9 0.948201
-21.7822 9.9 0.952421
-21.8121 9.9 0.957645
-21.8386 9.9 0.957185
-21.8665 9.9 0.959068
-21.8932 9.9 0.958945
-21.9186 9.9 0.956814
-21.943 9.9 0.953013
-21.968 9.9 0.950219
-21.993 9.9 0.947421
-22.0199 9.9 0.947632
-22.0466 9.9 0.947509
-22.0709 9.9 0.943708
-22.0964 9.9 0.94158
-22.1224 9.9 0.940455
-22.1455 9.9 0.934656
-22.1709 9.9 0.932528
-22.1975 9.9 0.932405
-22.2277 9.9 0.937955
-22.2554 9.9 0.939501
-22.2833 9.9 0.94138
-22.3083 9.9 0.938582
-22.3328 9.9 0.935118
-22.3567 9.9 0.930655
-22.3821 9.9 0.928527
-22.4085 9.9 0.928068
-22.4335 9.9 0.925273
-22.4595 9.9 0.924148
-22.4857 9.9 0.923356
-22.5123 9.9 0.923229
-22.5398 9.9 0.924439
-22.5662 9.9 0.92398
-22.5907 9.9 0.920516
-22.6171 9.9 0.920057
-22.6458 9.9 0.923268
-22.6754 9.9 0.927812
24.5603 10.2 0.893517
24.5347 10.2 0.89493
24.5075 10.2 0.894018
24.4815 10.2 0.894765
24.455 10.2 0.894849
24.4289 10.2 0.8956
24.4022 10.2 0.895351
24.3748 10.2 0.894105
24.3477 10.2 0.89319
24.321 10.2 0.892941
24.2949 10.2 0.893691
24.2697 10.2 0.895774
24.243 10.2 0.895525
24.2156 10.2 0.89428
24.1883 10.2 0.893035
24.1607 10.2 0.891453
24.1342 10.2 0.891541
24.1083 10.2 0.892624
24.0821 10.2 0.893041
24.0558 10.2 0.893458
24.0291 10.2 0.893213
24.0017 10.2 0.891964
23.9733 10.2 0.889057
23.9463 10.2 0.888478
23.9194 10.2 0.887896
23.8923 10.2 0.886984
23.8675 10.2 0.889729
23.8429 10.2 0.892812
23.8141 10.2 0.889238
23.7876 10.2 0.889322
23.7624 10.2 0.891405
23.7365 10.2 0.892488
23.7092 10.2 0.891243
23.6816 10.2 0.889665
23.6547 10.2 0.889086
23.6267 10.2 0.886841
23.5978 10.2 0.883267
23.5664 10.2 0.875703
23.5348 10.2 0.867808
23.5005 10.2 0.855599
23.4704 10.2 0.850036
23.4418 10.2 0.846802
23.4107 10.2 0.83958
23.3829 10.2 0.837675
23.3539 10.2 0.833774
23.3252 10.2 0.83021
23.2949 10.2 0.824324
23.2642 10.2 0.817775
23.2311 10.2 0.80725
23.199 10.2 0.798386
-21.3163 10.2 0.844674
-21.3441 10.2 0.846546
-21.3731 10.2 0.850408
-21.4061 10.2 0.860919
-21.4417 10.2 0.875764
-21.475 10.2 0.886621
-21.5071 10.2 0.89549
-21.5395 10.2 0.905027
-21.5704 10.2 0.911903
-21.6007 10.2 0.91778
-21.63 10.2 0.921994
-21.6615 10.2 0.929876
-21.69 10.2 0.932754
-21.7195 10.2 0.937305
-21.7512 10.2 0.945529
-21.7791 10.2 0.947408
-21.8044 10.2 0.944947
-21.8312 10.2 0.945157
-21.8583 10.2 0.945701
-21.887 10.2 0.948919
-21.9141 10.2 0.949462
-21.941 10.2 0.949672
-21.969 10.2 0.951888
-21.9949 10.2 0.950429
-22.0172 10.2 0.943288
-22.0422 10.2 0.940494
-22.0691 10.2 0.940704
-22.0955 10.2 0.940245
-22.1218 10.2 0.939452
-22.1484 10.2 0.939329
-22.173 10.2 0.935866
-22.1973 10.2 0.932069
-22.2225 10.2 0.929611
-22.2458 10.2 0.924145
-22.2702 10.2 0.920351
-22.2974 10.2 0.921227
-22.3251 10.2 0.92277
-22.3519 10.2 0.92298
-22.3784 10.2 0.922521
-22.4069 10.2 0.9254
-22.4341 10.2 0.926276
-22.4599 10.2 0.924814
-22.4844 10.2 0.921354
-22.511 10.2 0.921227
-22.5377 10.2 0.921101
-22.5641 10.2 0.920642
-22.5905 10.2 0.920183
-22.6167 10.2 0.91939
-22.6435 10.2 0.919597
-22.6754 10.2 0.927812
24.5567 10.5 0.888193
24.5302 10.5 0.888277
24.5037 10.5 0.888361
24.4772 10.5 0.888445
24.4519 10.5 0.890192
24.4254 10.5 0.890276
24.3989 10.5 0.89036
24.372 10.5 0.889781
24.3457 10.5 0.890195
24.3199 10.5 0.891279
24.2931 10.5 0.89103
24.2662 10.5 0.890451
24.2386 10.5 0.888872
24.2123 10.5 0.88929
24.1865 10.5 0.890373
24.1633 10.5 0.895447
24.1386 10.5 0.898197
24.1118 10.5 0.897948
24.0838 10.5 0.895703
24.0569 10.5 0.895124
24.0299 10.5 0.894542
24.003 10.5 0.893963
23.9776 10.5 0.895713
23.9515 10.5 0.896463
23.9235 10.5 0.894219
23.8942 10.5 0.889978
23.8668 10.5 0.888733
23.8406 10.5 0.889151
23.8145 10.5 0.889901
23.7887 10.5 0.890984
23.7617 10.5 0.890405
23.7344 10.5 0.88916
23.7066 10.5 0.887249
23.6788 10.5 0.885341
23.6521 10.5 0.885092
23.6245 10.5 0.883513
23.5959 10.5 0.880273
23.5662 10.5 0.875369
23.5359 10.5 0.86947
23.5047 10.5 0.862242
23.4702 10.5 0.849703
23.4397 10.5 0.84348
23.4122 10.5 0.841905
23.3827 10.5 0.837342
23.3525 10.5 0.831452
23.3235 10.5 0.827555
23.2941 10.5 0.822995
23.2642 10.5 0.817775
23.2342 10.5 0.812221
23.2023 10.5 0.803686
-21.3021 10.5 0.821106
-21.3325 10.5 0.827286
-21.3633 10.5 0.834133
-21.3977 10.5 0.846963
-21.4307 10.5 0.857471
-21.4617 10.5 0.864664
-21.4962 10.5 0.877511
-21.5266 10.5 0.883711
-21.5547 10.5 0.88592
-21.5845 10.5 0.89112
-21.6128 10.5 0.893662
-21.6416 10.5 0.8972
-21.6723 10.5 0.90374
-21.7049 10.5 0.913284
-21.7343 10.5 0.917828
-21.763 10.5 0.92104
-21.7927 10.5 0.92592
-21.8251 10.5 0.935141
-21.8526 10.5 0.936351
-21.8796 10.5 0.936897
-21.9083 10.5 0.940112
-21.9362 10.5 0.941991
-21.9633 10.5 0.942534
-21.9904 10.5 0.943078
-22.0211 10.5 0.949637
-22.0492 10.5 0.951849
-22.0761 10.5 0.952059
-22.1028 10.5 0.951936
-22.129 10.5 0.951144
-22.1559 10.5 0.951354
-22.185 10.5 0.955242
-22.2133 10.5 0.95779
-22.24 10.5 0.957667
-22.2656 10.5 0.955869
-22.2939 10.5 0.958421
-22.325 10.5 0.965316
-22.3522 10.5 0.966196
-22.3789 10.5 0.96607
-22.407 10.5 0.968289
-22.436 10.5 0.971843
-22.4589 10.5 0.965695
-22.4805 10.5 0.957544
-22.5044 10.5 0.953075
-22.5274 10.5 0.947269
-22.5494 10.5 0.939795
-22.575 10.5 0.938
-22.597 10.5 0.930529
-22.6215 10.5 0.927065
-22.6431 10.5 0.918931
-22.6678 10.5 0.915804
-22.6916 10.5 0.91134
-22.7163 10.5 0.908213
-22.7423 10.5 0.907087
-22.7683 10.5 0.905959
-22.7944 10.5 0.905166
24.4229 10.8 0.886618
24.3973 10.8 0.888031
24.3713 10.8 0.888782
24.3437 10.8 0.887204
24.3157 10.8 0.884959
24.2903 10.8 0.886705
24.2638 10.8 0.886793
24.238 10.8 0.887873
24.2121 10.8 0.888956
24.1861 10.8 0.889707
24.1591 10.8 0.889125
24.132 10.8 0.888213
24.1051 10.8 0.887634
24.077 10.8 0.885389
24.0506 10.8 0.885473
24.0256 10.8 0.887889
23.998 10.8 0.886311
23.9709 10.8 0.885399
23.9446 10.8 0.885816
23.9196 10.8 0.888229
23.8936 10.8 0.888979
23.8675 10.8 0.889729
23.841 10.8 0.889817
23.8145 10.8 0.889901
23.7876 10.8 0.889322
23.7615 10.8 0.890072
23.7354 10.8 0.890826
23.7081 10.8 0.889577
23.6803 10.8 0.887669
23.6521 10.8 0.885092
23.6243 10.8 0.88318
23.597 10.8 0.881935
23.5685 10.8 0.879027
23.5389 10.8 0.874124
23.5092 10.8 0.869224
23.4791 10.8 0.863658
23.4492 10.8 0.858425
23.4164 10.8 0.848545
23.3838 10.8 0.839001
23.3541 10.8 0.834107
23.3243 10.8 0.828884
23.2936 10.8 0.822332
23.2624 10.8 0.814789
23.2334 10.8 0.810895
23.2044 10.8 0.807001
23.1759 10.8 0.80377
23.1482 10.8 0.801866
23.1174 10.8 0.794993
23.0795 10.8 0.776865
23.0403 10.8 0.756771
-21.2946 10.8 0.808505
-21.3257 10.8 0.816009
-21.3577 10.8 0.824841
-21.3877 10.8 0.830359
-21.4181 10.8 0.836543
-21.4507 10.8 0.846384
-21.4791 10.8 0.84925
-21.5087 10.8 0.854111
-21.5414 10.8 0.863959
-21.5726 10.8 0.871485
-21.6073 10.8 0.884671
-21.6368 10.8 0.889209
-21.6671 10.8 0.895079
-21.6988 10.8 0.903284
-21.7287 10.8 0.908494
-21.7632 10.8 0.921373
-21.7972 10.8 0.933262
-21.8292 10.8 0.94182
-21.8571 10.8 0.943699
-21.8839 10.8 0.943909
-21.9131 10.8 0.947793
-21.9383 10.8 0.945332
-21.968 10.8 0.950219
-21.9957 10.8 0.951765
-22.0226 10.8 0.951975
-22.0488 10.8 0.951183
-22.0751 10.8 0.95039
-22.0995 10.8 0.94659
-22.1249 10.8 0.944462
-22.1505 10.8 0.942667
-22.1765 10.8 0.941542
-22.2013 10.8 0.938414
-22.2258 10.8 0.93495
-22.2494 10.8 0.929817
-22.2708 10.8 0.921354
-22.2968 10.8 0.920228
-22.3245 10.8 0.921771
-22.3511 10.8 0.921645
-22.3761 10.8 0.918854
-22.3954 10.8 0.907058
-22.417 10.8 0.898934
-22.4482 10.8 0.90614
-22.4779 10.8 0.911014
-22.5089 10.8 0.917893
-22.5421 10.8 0.92811
-22.5674 10.8 0.925982
-22.5941 10.8 0.925856
-22.6219 10.8 0.927731
-22.6477 10.8 0.92627
-22.6752 10.8 0.927479
-22.7058 10.8 0.933695
-22.7331 10.8 0.934569
-22.7563 10.8 0.929103
-22.7827 10.8 0.92864
-22.8097 10.8 0.92918
-22.8368 10.8 0.929721
-22.8649 10.8 0.931929
-22.8912 10.8 0.93147
-22.9183 10.8 0.932007
-22.9447 10.8 0.931548
24.4247 11.1 0.88928
24.398 11.1 0.889031
24.3713 11.1 0.888782
24.3448 11.1 0.888866
24.3176 11.1 0.887954
24.2894 11.1 0.885376
24.2636 11.1 0.88646
24.238 11.1 0.887873
24.2099 11.1 0.885632
24.1834 11.1 0.885716
24.1581 11.1 0.887462
24.1342 11.1 0.891541
24.1062 11.1 0.889296
24.0784 11.1 0.887385
24.0519 11.1 0.887469
24.0258 11.1 0.888222
24.0008 11.1 0.890635
23.9756 11.1 0.892718
23.9496 11.1 0.893468
23.9227 11.1 0.892886
23.8959 11.1 0.89264
23.8679 11.1 0.890396
23.8399 11.1 0.888154
23.813 11.1 0.887572
23.7887 11.1 0.890984
23.7652 11.1 0.895732
23.7382 11.1 0.89515
23.7102 11.1 0.892905
23.6818 11.1 0.889998
23.6529 11.1 0.886424
23.6252 11.1 0.884513
23.5982 11.1 0.883934
23.5717 11.1 0.884018
23.5446 11.1 0.883106
23.5132 11.1 0.875541
23.4804 11.1 0.865651
23.4503 11.1 0.860088
23.4206 11.1 0.855188
23.3895 11.1 0.847966
23.3544 11.1 0.834441
23.3243 11.1 0.828884
23.2962 11.1 0.826313
23.2649 11.1 0.818767
23.2346 11.1 0.812884
23.2063 11.1 0.809983
23.1757 11.1 0.803441
23.1457 11.1 0.797891
23.1161 11.1 0.793004
23.0853 11.1 0.786134
23.0526 11.1 0.776286
-21.4405 11.1 0.82945
-21.4747 11.1 0.841944
-21.5083 11.1 0.853448
-21.539 11.1 0.859971
-21.5708 11.1 0.868494
-21.6029 11.1 0.877349
-21.6317 11.1 0.880887
-21.6638 11.1 0.889752
-21.6953 11.1 0.897621
-21.728 11.1 0.907492
-21.7575 11.1 0.912036
-21.7891 11.1 0.919914
-21.8175 11.1 0.922793
-21.8485 11.1 0.929675
-21.8764 11.1 0.931554
-21.9032 11.1 0.931765
-21.9299 11.1 0.931642
-21.9557 11.1 0.930183
-21.9817 11.1 0.929057
-22.0047 11.1 0.922929
-22.0268 11.1 0.915467
-22.0503 11.1 0.910341
-22.0761 11.1 0.908882
-22.1036 11.1 0.910092
-22.1294 11.1 0.908637
-22.1523 11.1 0.902514
-22.1733 11.1 0.893394
-22.1856 11.1 0.870305
-22.2906 11.1 0.953072
-22.3141 11.1 0.947936
-22.3391 11.1 0.945138
-22.3638 11.1 0.942007
-22.3894 11.1 0.940212
-22.4148 11.1 0.938084
-22.4396 11.1 0.934953
-22.4656 11.1 0.933828
-22.4899 11.1 0.930028
-22.5159 11.1 0.928902
-22.5412 11.1 0.926774
-22.5691 11.1 0.92865
-22.5955 11.1 0.928191
-22.6215 11.1 0.927065
-22.6488 11.1 0.927938
-22.6767 11.1 0.929814
-22.7039 11.1 0.930691
-22.7303 11.1 0.930232
-22.7559 11.1 0.928433
-22.7846 11.1 0.931645
-22.8131 11.1 0.934523
-22.8419 11.1 0.937735
-22.868 11.1 0.936939
-22.8904 11.1 0.930134
-22.9181 11.1 0.931674
-22.9427 11.1 0.928543
-22.9663 11.1 0.92374
24.4245 11.4 0.888947
24.3998 11.4 0.891693
24.3737 11.4 0.89244
24.347 11.4 0.892194
24.3203 11.4 0.891945
24.2938 11.4 0.892029
24.2673 11.4 0.892113
24.2395 11.4 0.890202
24.2123 11.4 0.88929
24.1861 11.4 0.889707
24.1591 11.4 0.889125
24.1318 11.4 0.887879
24.1075 11.4 0.891292
24.0823 11.4 0.893374
24.0551 11.4 0.892459
24.0265 11.4 0.889218
24.0002 11.4 0.889636
23.975 11.4 0.891718
23.9468 11.4 0.889141
23.9203 11.4 0.889228
23.894 11.4 0.889645
23.8673 11.4 0.8894
23.8395 11.4 0.887488
23.8128 11.4 0.887239
23.7891 11.4 0.891651
23.7628 11.4 0.892071
23.7339 11.4 0.888494
23.7079 11.4 0.889248
23.6816 11.4 0.889665
23.6544 11.4 0.888753
23.6277 11.4 0.888504
23.6002 11.4 0.886925
23.5717 11.4 0.884018
23.5427 11.4 0.880111
23.5134 11.4 0.875874
23.4842 11.4 0.871637
23.456 11.4 0.86906
23.4261 11.4 0.863827
23.3958 11.4 0.857931
23.3643 11.4 0.850042
23.3311 11.4 0.839502
23.2998 11.4 0.831953
23.2701 11.4 0.82706
23.2403 11.4 0.821837
23.209 11.4 0.814295
23.1788 11.4 0.808412
23.149 11.4 0.803192
23.1205 11.4 0.799961
23.0899 11.4 0.793418
23.0618 11.4 0.790853
-21.4333 11.4 0.817506
-21.4657 11.4 0.827005
-21.5005 11.4 0.840492
-21.5317 11.4 0.848008
-21.5638 11.4 0.856857
-21.5942 11.4 0.863047
-21.6248 11.4 0.869577
-21.6583 11.4 0.880764
-21.6878 11.4 0.885299
-21.7177 11.4 0.890502
-21.753 11.4 0.904704
-21.7891 11.4 0.919914
-21.8186 11.4 0.924462
-21.8448 11.4 0.923669
-21.8751 11.4 0.929552
-21.9026 11.4 0.930765
-21.9295 11.4 0.930972
-21.9563 11.4 0.931182
-21.9834 11.4 0.931726
-22.0112 11.4 0.933605
-22.0433 11.4 0.942163
-22.0738 11.4 0.948385
-22.1005 11.4 0.948262
-22.1242 11.4 0.943459
-22.1505 11.4 0.942667
-22.1792 11.4 0.945885
-22.209 11.4 0.950772
-22.24 11.4 0.957667
-22.2677 11.4 0.959213
-22.2954 11.4 0.960759
-22.3231 11.4 0.962308
-22.3497 11.4 0.962182
-22.3749 11.4 0.959718
-22.4007 11.4 0.958256
-22.4251 11.4 0.954453
-22.4507 11.4 0.952658
-22.4769 11.4 0.951862
-22.5021 11.4 0.949397
-22.5279 11.4 0.947936
-22.553 11.4 0.945471
-22.5784 11.4 0.943343
-22.604 11.4 0.941548
-22.6291 11.4 0.939084
-22.6549 11.4 0.937622
-22.6779 11.4 0.931819
-22.7054 11.4 0.933026
-22.7329 11.4 0.934235
-22.7599 11.4 0.934776
-22.7865 11.4 0.934649
-22.8131 11.4 0.934523
-22.8397 11.4 0.934394
